ply
format ascii 1.0
element vertex 747
property double x
property double y
property double z
property uchar red
property uchar green
property uchar blue
end_header
-0.165539000000000 -0.702214000000000 0.431911000000000 255 0 0
-0.069307000000000 -0.715936000000000 0.425312000000000 255 0 0
-0.161043000000000 -0.716931000000000 0.431448000000000 255 0 0
-0.166139000000000 -0.711753000000000 0.417819000000000 255 0 0
-0.075932000000000 -0.731785000000000 0.425762000000000 255 0 0
-0.154490000000000 -0.731642000000000 0.432217000000000 255 0 0
-0.087180000000000 -0.747395000000000 0.429813000000000 255 0 0
-0.140317000000000 -0.751157000000000 0.432221000000000 255 0 0
-0.147732000000000 -0.742183000000000 0.434991000000000 255 0 0
-0.099929000000000 -0.756403000000000 0.430814000000000 255 0 0
-0.114466000000000 -0.759604000000000 0.430868000000000 255 0 0
-0.128552000000000 -0.757353000000000 0.431261000000000 255 0 0
-0.149139000000000 -0.393053000000000 0.390081000000000 255 0 0
-0.165435000000000 -0.393123000000000 0.392063000000000 255 0 0
-0.178713000000000 -0.395803000000000 0.390095000000000 255 0 0
-0.161193000000000 -0.408333000000000 0.395496000000000 255 0 0
-0.176402000000000 -0.408109000000000 0.393321000000000 255 0 0
-0.134144000000000 -0.424183000000000 0.394135000000000 255 0 0
-0.146710000000000 -0.427880000000000 0.399546000000000 255 0 0
-0.159699000000000 -0.424697000000000 0.398969000000000 255 0 0
-0.174933000000000 -0.423281000000000 0.396142000000000 255 0 0
-0.188218000000000 -0.423033000000000 0.389435000000000 255 0 0
-0.141027000000000 -0.440018000000000 0.402213000000000 255 0 0
-0.158352000000000 -0.442440000000000 0.403528000000000 255 0 0
-0.174358000000000 -0.439446000000000 0.398873000000000 255 0 0
-0.187879000000000 -0.438689000000000 0.391653000000000 255 0 0
-0.120702000000000 -0.454432000000000 0.396764000000000 255 0 0
-0.175037000000000 -0.455537000000000 0.402778000000000 255 0 0
-0.188069000000000 -0.454929000000000 0.393764000000000 255 0 0
-0.126778000000000 -0.472515000000000 0.408962000000000 255 0 0
-0.188218000000000 -0.470685000000000 0.397942000000000 255 0 0
-0.107323000000000 -0.484735000000000 0.398300000000000 255 0 0
-0.187966000000000 -0.485794000000000 0.403053000000000 255 0 0
-0.197903000000000 -0.486626000000000 0.390950000000000 255 0 0
-0.113951000000000 -0.499202000000000 0.412747000000000 255 0 0
-0.197770000000000 -0.501227000000000 0.394784000000000 255 0 0
-0.197553000000000 -0.516486000000000 0.397166000000000 255 0 0
-0.089427000000000 -0.533483000000000 0.400816000000000 255 0 0
-0.097828000000000 -0.532602000000000 0.414641000000000 255 0 0
-0.196523000000000 -0.532105000000000 0.398618000000000 255 0 0
-0.085762000000000 -0.564253000000000 0.414934000000000 255 0 0
-0.189459000000000 -0.567632000000000 0.410468000000000 255 0 0
-0.074398000000000 -0.584218000000000 0.403769000000000 255 0 0
-0.079780000000000 -0.580443000000000 0.415642000000000 255 0 0
-0.188467000000000 -0.580067000000000 0.413047000000000 255 0 0
-0.187900000000000 -0.595028000000000 0.414349000000000 255 0 0
-0.071525000000000 -0.610784000000000 0.416048000000000 255 0 0
-0.187900000000000 -0.610499000000000 0.415174000000000 255 0 0
-0.069245000000000 -0.626254000000000 0.415899000000000 255 0 0
-0.187486000000000 -0.625820000000000 0.415932000000000 255 0 0
-0.068251000000000 -0.641873000000000 0.415812000000000 255 0 0
-0.186034000000000 -0.640636000000000 0.416658000000000 255 0 0
-0.067382000000000 -0.657517000000000 0.415812000000000 255 0 0
-0.182878000000000 -0.655435000000000 0.416458000000000 255 0 0
-0.066948000000000 -0.673161000000000 0.415812000000000 255 0 0
-0.178659000000000 -0.671266000000000 0.415845000000000 255 0 0
-0.181843000000000 -0.665791000000000 0.400884000000000 255 0 0
-0.066730000000000 -0.688631000000000 0.415493000000000 255 0 0
-0.174012000000000 -0.686963000000000 0.417240000000000 255 0 0
-0.067386000000000 -0.703617000000000 0.414516000000000 255 0 0
-0.170907000000000 -0.699011000000000 0.420778000000000 255 0 0
-0.070163000000000 -0.718644000000000 0.413010000000000 255 0 0
-0.076139000000000 -0.732857000000000 0.409015000000000 255 0 0
-0.159142000000000 -0.726826000000000 0.417098000000000 255 0 0
-0.084225000000000 -0.745653000000000 0.415151000000000 255 0 0
-0.137352000000000 -0.753419000000000 0.420588000000000 255 0 0
-0.148760000000000 -0.742267000000000 0.419976000000000 255 0 0
-0.096291000000000 -0.755240000000000 0.416788000000000 255 0 0
-0.110671000000000 -0.759290000000000 0.416558000000000 255 0 0
-0.125615000000000 -0.757578000000000 0.417117000000000 255 0 0
-0.164874000000000 -0.314134000000000 0.375563000000000 255 0 0
-0.181170000000000 -0.314668000000000 0.376660000000000 255 0 0
-0.194357000000000 -0.317583000000000 0.374451000000000 255 0 0
-0.176988000000000 -0.329890000000000 0.379958000000000 255 0 0
-0.191829000000000 -0.329890000000000 0.377678000000000 255 0 0
-0.149313000000000 -0.345732000000000 0.377532000000000 255 0 0
-0.163491000000000 -0.349094000000000 0.382390000000000 255 0 0
-0.175686000000000 -0.345894000000000 0.382236000000000 255 0 0
-0.190049000000000 -0.344938000000000 0.380105000000000 255 0 0
-0.203210000000000 -0.344814000000000 0.373791000000000 255 0 0
-0.159371000000000 -0.362155000000000 0.383712000000000 255 0 0
-0.174894000000000 -0.361749000000000 0.384279000000000 255 0 0
-0.189046000000000 -0.360644000000000 0.381607000000000 255 0 0
-0.201588000000000 -0.360284000000000 0.375327000000000 255 0 0
-0.131892000000000 -0.373619000000000 0.376425000000000 255 0 0
-0.141048000000000 -0.379516000000000 0.384083000000000 255 0 0
-0.154637000000000 -0.377694000000000 0.387089000000000 255 0 0
-0.172999000000000 -0.379471000000000 0.387599000000000 255 0 0
-0.188158000000000 -0.376672000000000 0.382923000000000 255 0 0
-0.199933000000000 -0.375990000000000 0.376030000000000 255 0 0
-0.188320000000000 -0.392763000000000 0.385019000000000 255 0 0
-0.198871000000000 -0.391782000000000 0.376908000000000 255 0 0
-0.122273000000000 -0.403913000000000 0.377855000000000 255 0 0
-0.129204000000000 -0.410197000000000 0.387188000000000 255 0 0
-0.143636000000000 -0.410933000000000 0.393594000000000 255 0 0
-0.188777000000000 -0.408047000000000 0.387652000000000 255 0 0
-0.198151000000000 -0.407451000000000 0.377971000000000 255 0 0
-0.197837000000000 -0.422946000000000 0.379629000000000 255 0 0
-0.126788000000000 -0.438515000000000 0.395055000000000 255 0 0
-0.197771000000000 -0.438565000000000 0.381038000000000 255 0 0
-0.197957000000000 -0.454718000000000 0.382101000000000 255 0 0
-0.104679000000000 -0.469997000000000 0.384164000000000 255 0 0
-0.113239000000000 -0.469659000000000 0.397612000000000 255 0 0
-0.198945000000000 -0.472930000000000 0.384225000000000 255 0 0
-0.101641000000000 -0.501259000000000 0.399013000000000 255 0 0
-0.089520000000000 -0.521643000000000 0.388125000000000 255 0 0
-0.094952000000000 -0.517918000000000 0.400056000000000 255 0 0
-0.083983000000000 -0.549044000000000 0.399940000000000 255 0 0
-0.194826000000000 -0.547774000000000 0.400088000000000 255 0 0
-0.078601000000000 -0.567251000000000 0.397675000000000 255 0 0
-0.193462000000000 -0.563654000000000 0.399574000000000 255 0 0
-0.191693000000000 -0.579385000000000 0.398810000000000 255 0 0
-0.070273000000000 -0.596903000000000 0.402048000000000 255 0 0
-0.190487000000000 -0.594755000000000 0.399619000000000 255 0 0
-0.068067000000000 -0.611504000000000 0.401405000000000 255 0 0
-0.189825000000000 -0.610201000000000 0.400377000000000 255 0 0
-0.067020000000000 -0.626403000000000 0.400486000000000 255 0 0
-0.189502000000000 -0.625249000000000 0.401343000000000 255 0 0
-0.066730000000000 -0.641873000000000 0.400168000000000 255 0 0
-0.188269000000000 -0.639741000000000 0.402300000000000 255 0 0
-0.066730000000000 -0.657517000000000 0.400168000000000 255 0 0
-0.186344000000000 -0.651790000000000 0.404529000000000 255 0 0
-0.067020000000000 -0.673161000000000 0.400168000000000 255 0 0
-0.067879000000000 -0.688780000000000 0.400081000000000 255 0 0
-0.175685000000000 -0.684764000000000 0.399499000000000 255 0 0
-0.069944000000000 -0.704461000000000 0.399729000000000 255 0 0
-0.170506000000000 -0.701230000000000 0.407192000000000 255 0 0
-0.074189000000000 -0.719791000000000 0.398766000000000 255 0 0
-0.163287000000000 -0.716617000000000 0.402647000000000 255 0 0
-0.079588000000000 -0.731787000000000 0.397333000000000 255 0 0
-0.152174000000000 -0.732328000000000 0.402244000000000 255 0 0
-0.084768000000000 -0.742512000000000 0.401842000000000 255 0 0
-0.137519000000000 -0.747039000000000 0.404569000000000 255 0 0
-0.092984000000000 -0.751497000000000 0.405794000000000 255 0 0
-0.104769000000000 -0.754737000000000 0.403356000000000 255 0 0
-0.120181000000000 -0.753607000000000 0.402381000000000 255 0 0
-0.178596000000000 -0.223844000000000 0.360339000000000 255 0 0
-0.194551000000000 -0.224563000000000 0.360658000000000 255 0 0
-0.166420000000000 -0.236930000000000 0.361126000000000 255 0 0
-0.180581000000000 -0.239770000000000 0.365133000000000 255 0 0
-0.192730000000000 -0.237148000000000 0.364342000000000 255 0 0
-0.206643000000000 -0.236188000000000 0.359952000000000 255 0 0
-0.176865000000000 -0.252341000000000 0.366408000000000 255 0 0
-0.191899000000000 -0.251757000000000 0.366479000000000 255 0 0
-0.206053000000000 -0.251186000000000 0.363277000000000 255 0 0
-0.151092000000000 -0.267607000000000 0.361604000000000 255 0 0
-0.163496000000000 -0.270845000000000 0.366798000000000 255 0 0
-0.175636000000000 -0.267898000000000 0.367838000000000 255 0 0
-0.190726000000000 -0.266867000000000 0.367816000000000 255 0 0
-0.205296000000000 -0.266507000000000 0.365260000000000 255 0 0
-0.218536000000000 -0.266420000000000 0.358379000000000 255 0 0
-0.159533000000000 -0.282983000000000 0.367698000000000 255 0 0
-0.174593000000000 -0.283467000000000 0.369773000000000 255 0 0
-0.189834000000000 -0.282871000000000 0.369227000000000 255 0 0
-0.204578000000000 -0.282188000000000 0.366088000000000 255 0 0
-0.217232000000000 -0.282064000000000 0.359683000000000 255 0 0
-0.154670000000000 -0.297919000000000 0.369336000000000 255 0 0
-0.170293000000000 -0.298602000000000 0.372732000000000 255 0 0
-0.188501000000000 -0.300996000000000 0.372280000000000 255 0 0
-0.203715000000000 -0.298366000000000 0.367279000000000 255 0 0
-0.215577000000000 -0.297770000000000 0.360386000000000 255 0 0
-0.135489000000000 -0.312644000000000 0.361955000000000 255 0 0
-0.149039000000000 -0.313687000000000 0.370882000000000 255 0 0
-0.203964000000000 -0.314544000000000 0.369376000000000 255 0 0
-0.214515000000000 -0.313563000000000 0.361264000000000 255 0 0
-0.141692000000000 -0.328577000000000 0.370575000000000 255 0 0
-0.159675000000000 -0.332082000000000 0.378078000000000 255 0 0
-0.204204000000000 -0.329828000000000 0.372008000000000 255 0 0
-0.213723000000000 -0.329232000000000 0.362327000000000 255 0 0
-0.212974000000000 -0.344727000000000 0.363985000000000 255 0 0
-0.141644000000000 -0.362724000000000 0.378390000000000 255 0 0
-0.122664000000000 -0.375457000000000 0.367000000000000 255 0 0
-0.131227000000000 -0.392000000000000 0.381578000000000 255 0 0
-0.121511000000000 -0.420475000000000 0.382785000000000 255 0 0
-0.116189000000000 -0.438337000000000 0.383148000000000 255 0 0
-0.104172000000000 -0.456092000000000 0.369708000000000 255 0 0
-0.110200000000000 -0.454561000000000 0.383765000000000 255 0 0
-0.099490000000000 -0.485935000000000 0.383799000000000 255 0 0
-0.203238000000000 -0.489383000000000 0.379508000000000 255 0 0
-0.094117000000000 -0.504548000000000 0.381957000000000 255 0 0
-0.203138000000000 -0.501525000000000 0.382103000000000 255 0 0
-0.202828000000000 -0.515915000000000 0.383876000000000 255 0 0
-0.085075000000000 -0.534452000000000 0.386135000000000 255 0 0
-0.201736000000000 -0.531141000000000 0.384557000000000 255 0 0
-0.081640000000000 -0.549441000000000 0.384018000000000 255 0 0
-0.199909000000000 -0.546698000000000 0.385657000000000 255 0 0
-0.073648000000000 -0.582866000000000 0.387460000000000 255 0 0
-0.078519000000000 -0.564022000000000 0.378093000000000 255 0 0
-0.197109000000000 -0.559601000000000 0.388490000000000 255 0 0
-0.194135000000000 -0.576084000000000 0.382651000000000 255 0 0
-0.069339000000000 -0.599217000000000 0.390038000000000 255 0 0
-0.191143000000000 -0.593563000000000 0.384685000000000 255 0 0
-0.068245000000000 -0.611231000000000 0.386605000000000 255 0 0
-0.189485000000000 -0.609170000000000 0.385261000000000 255 0 0
-0.068055000000000 -0.626254000000000 0.384962000000000 255 0 0
-0.188534000000000 -0.624665000000000 0.386338000000000 255 0 0
-0.068531000000000 -0.641935000000000 0.384524000000000 255 0 0
-0.188169000000000 -0.637214000000000 0.390167000000000 255 0 0
-0.069404000000000 -0.657728000000000 0.384697000000000 255 0 0
-0.184221000000000 -0.653052000000000 0.389063000000000 255 0 0
-0.071146000000000 -0.673521000000000 0.385016000000000 255 0 0
-0.176471000000000 -0.673712000000000 0.384027000000000 255 0 0
-0.073973000000000 -0.689612000000000 0.385289000000000 255 0 0
-0.172714000000000 -0.687634000000000 0.386756000000000 255 0 0
-0.077636000000000 -0.706050000000000 0.385831000000000 255 0 0
-0.166798000000000 -0.700996000000000 0.389959000000000 255 0 0
-0.084271000000000 -0.722966000000000 0.386496000000000 255 0 0
-0.154915000000000 -0.718541000000000 0.387912000000000 255 0 0
-0.087358000000000 -0.736974000000000 0.392461000000000 255 0 0
-0.097887000000000 -0.734770000000000 0.384743000000000 255 0 0
-0.141978000000000 -0.732670000000000 0.388204000000000 255 0 0
-0.096161000000000 -0.746509000000000 0.395395000000000 255 0 0
-0.110603000000000 -0.745840000000000 0.390701000000000 255 0 0
-0.126711000000000 -0.741639000000000 0.388671000000000 255 0 0
-0.178203000000000 -0.176132000000000 0.344977000000000 255 0 0
-0.196607000000000 -0.174524000000000 0.346451000000000 255 0 0
-0.210601000000000 -0.176546000000000 0.344359000000000 255 0 0
-0.164983000000000 -0.189083000000000 0.345303000000000 255 0 0
-0.178773000000000 -0.193192000000000 0.351255000000000 255 0 0
-0.192447000000000 -0.190274000000000 0.350942000000000 255 0 0
-0.208129000000000 -0.189368000000000 0.348269000000000 255 0 0
-0.222250000000000 -0.188574000000000 0.341285000000000 255 0 0
-0.170666000000000 -0.205640000000000 0.353401000000000 255 0 0
-0.189353000000000 -0.208264000000000 0.356174000000000 255 0 0
-0.206489000000000 -0.204991000000000 0.351960000000000 255 0 0
-0.221683000000000 -0.204528000000000 0.344776000000000 255 0 0
-0.147889000000000 -0.215995000000000 0.345306000000000 255 0 0
-0.160212000000000 -0.219859000000000 0.354310000000000 255 0 0
-0.206258000000000 -0.220945000000000 0.356434000000000 255 0 0
-0.220766000000000 -0.220358000000000 0.348784000000000 255 0 0
-0.219907000000000 -0.235580000000000 0.353123000000000 255 0 0
-0.231537000000000 -0.236325000000000 0.342942000000000 255 0 0
-0.137909000000000 -0.247470000000000 0.346535000000000 255 0 0
-0.145422000000000 -0.253680000000000 0.355757000000000 255 0 0
-0.160003000000000 -0.254449000000000 0.362331000000000 255 0 0
-0.219129000000000 -0.250863000000000 0.356612000000000 255 0 0
-0.230109000000000 -0.251012000000000 0.346100000000000 255 0 0
-0.228820000000000 -0.266420000000000 0.348312000000000 255 0 0
-0.145422000000000 -0.281890000000000 0.361367000000000 255 0 0
-0.140263000000000 -0.297559000000000 0.361775000000000 255 0 0
-0.122648000000000 -0.327857000000000 0.351620000000000 255 0 0
-0.130465000000000 -0.324903000000000 0.361160000000000 255 0 0
-0.132340000000000 -0.341966000000000 0.366412000000000 255 0 0
-0.126615000000000 -0.359717000000000 0.366544000000000 255 0 0
-0.211583000000000 -0.360197000000000 0.365419000000000 255 0 0
-0.209990000000000 -0.375609000000000 0.365940000000000 255 0 0
-0.216206000000000 -0.374690000000000 0.353359000000000 255 0 0
-0.119034000000000 -0.390890000000000 0.367377000000000 255 0 0
-0.207155000000000 -0.391133000000000 0.366081000000000 255 0 0
-0.115966000000000 -0.406326000000000 0.367562000000000 255 0 0
-0.204972000000000 -0.406946000000000 0.366366000000000 255 0 0
-0.113545000000000 -0.422913000000000 0.367823000000000 255 0 0
-0.203968000000000 -0.422710000000000 0.367167000000000 255 0 0
-0.105634000000000 -0.444931000000000 0.354015000000000 255 0 0
-0.109096000000000 -0.439997000000000 0.368440000000000 255 0 0
-0.203420000000000 -0.438267000000000 0.367761000000000 255 0 0
-0.203192000000000 -0.454060000000000 0.368170000000000 255 0 0
-0.099899000000000 -0.470929000000000 0.369625000000000 255 0 0
-0.203337000000000 -0.470213000000000 0.368872000000000 255 0 0
-0.096982000000000 -0.486059000000000 0.367518000000000 255 0 0
-0.204119000000000 -0.485795000000000 0.369013000000000 255 0 0
-0.089508000000000 -0.520378000000000 0.371600000000000 255 0 0
-0.094762000000000 -0.501011000000000 0.362035000000000 255 0 0
-0.204268000000000 -0.500557000000000 0.368524000000000 255 0 0
-0.203598000000000 -0.515332000000000 0.369639000000000 255 0 0
-0.084499000000000 -0.536836000000000 0.373644000000000 255 0 0
-0.203117000000000 -0.528050000000000 0.372939000000000 255 0 0
-0.082840000000000 -0.548962000000000 0.368449000000000 255 0 0
-0.199339000000000 -0.545049000000000 0.368322000000000 255 0 0
-0.081496000000000 -0.561098000000000 0.364162000000000 255 0 0
-0.197003000000000 -0.562325000000000 0.374124000000000 255 0 0
-0.072393000000000 -0.595211000000000 0.376019000000000 255 0 0
-0.077854000000000 -0.576787000000000 0.367134000000000 255 0 0
-0.191998000000000 -0.578491000000000 0.364604000000000 255 0 0
-0.189661000000000 -0.593132000000000 0.369346000000000 255 0 0
-0.072389000000000 -0.610209000000000 0.371123000000000 255 0 0
-0.188565000000000 -0.605937000000000 0.373048000000000 255 0 0
-0.073063000000000 -0.626167000000000 0.369707000000000 255 0 0
-0.184318000000000 -0.622504000000000 0.369572000000000 255 0 0
-0.074743000000000 -0.642416000000000 0.369578000000000 255 0 0
-0.183504000000000 -0.640120000000000 0.376433000000000 255 0 0
-0.076618000000000 -0.658718000000000 0.370497000000000 255 0 0
-0.176767000000000 -0.657545000000000 0.371733000000000 255 0 0
-0.079687000000000 -0.674626000000000 0.371288000000000 255 0 0
-0.167998000000000 -0.673998000000000 0.368823000000000 255 0 0
-0.086359000000000 -0.692210000000000 0.371519000000000 255 0 0
-0.156842000000000 -0.688681000000000 0.366636000000000 255 0 0
-0.167364000000000 -0.688515000000000 0.377903000000000 255 0 0
-0.087727000000000 -0.708904000000000 0.376597000000000 255 0 0
-0.099077000000000 -0.704256000000000 0.367573000000000 255 0 0
-0.143404000000000 -0.702641000000000 0.366684000000000 255 0 0
-0.156446000000000 -0.703663000000000 0.376385000000000 255 0 0
-0.098191000000000 -0.719853000000000 0.375904000000000 255 0 0
-0.110392000000000 -0.714529000000000 0.368779000000000 255 0 0
-0.127021000000000 -0.714465000000000 0.368421000000000 255 0 0
-0.143075000000000 -0.718041000000000 0.376389000000000 255 0 0
-0.114541000000000 -0.730065000000000 0.378011000000000 255 0 0
-0.131145000000000 -0.728987000000000 0.378424000000000 255 0 0
-0.161881000000000 -0.154192000000000 0.332198000000000 255 0 0
-0.171544000000000 -0.160382000000000 0.338926000000000 255 0 0
-0.185950000000000 -0.158503000000000 0.342762000000000 255 0 0
-0.205817000000000 -0.159782000000000 0.342171000000000 255 0 0
-0.223171000000000 -0.157378000000000 0.335159000000000 255 0 0
-0.221643000000000 -0.172819000000000 0.338597000000000 255 0 0
-0.231694000000000 -0.170127000000000 0.330352000000000 255 0 0
-0.150495000000000 -0.187969000000000 0.334930000000000 255 0 0
-0.235330000000000 -0.186147000000000 0.329882000000000 255 0 0
-0.155293000000000 -0.203448000000000 0.345763000000000 255 0 0
-0.235026000000000 -0.204006000000000 0.333608000000000 255 0 0
-0.138523000000000 -0.218775000000000 0.335834000000000 255 0 0
-0.235245000000000 -0.222575000000000 0.336318000000000 255 0 0
-0.147423000000000 -0.235086000000000 0.350762000000000 255 0 0
-0.137591000000000 -0.264164000000000 0.350773000000000 255 0 0
-0.133627000000000 -0.281804000000000 0.350783000000000 255 0 0
-0.227227000000000 -0.282064000000000 0.349688000000000 255 0 0
-0.121033000000000 -0.298031000000000 0.337394000000000 255 0 0
-0.129029000000000 -0.297559000000000 0.350876000000000 255 0 0
-0.225677000000000 -0.297621000000000 0.350209000000000 255 0 0
-0.232125000000000 -0.297299000000000 0.337206000000000 255 0 0
-0.124532000000000 -0.312520000000000 0.350832000000000 255 0 0
-0.222948000000000 -0.313116000000000 0.350524000000000 255 0 0
-0.220783000000000 -0.328785000000000 0.350809000000000 255 0 0
-0.120618000000000 -0.344010000000000 0.352509000000000 255 0 0
-0.219457000000000 -0.344491000000000 0.351523000000000 255 0 0
-0.117954000000000 -0.360048000000000 0.352765000000000 255 0 0
-0.218339000000000 -0.359874000000000 0.352415000000000 255 0 0
-0.115589000000000 -0.375754000000000 0.352889000000000 255 0 0
-0.114134000000000 -0.391398000000000 0.352827000000000 255 0 0
-0.213050000000000 -0.389490000000000 0.353303000000000 255 0 0
-0.112653000000000 -0.407410000000000 0.352351000000000 255 0 0
-0.209917000000000 -0.405407000000000 0.352228000000000 255 0 0
-0.212801000000000 -0.399792000000000 0.338007000000000 255 0 0
-0.110110000000000 -0.425335000000000 0.349891000000000 255 0 0
-0.206752000000000 -0.421858000000000 0.352383000000000 255 0 0
-0.205415000000000 -0.437485000000000 0.353638000000000 255 0 0
-0.101451000000000 -0.459039000000000 0.358128000000000 255 0 0
-0.204277000000000 -0.452955000000000 0.353573000000000 255 0 0
-0.099796000000000 -0.470593000000000 0.354742000000000 255 0 0
-0.203337000000000 -0.469170000000000 0.353660000000000 255 0 0
-0.098689000000000 -0.484814000000000 0.351593000000000 255 0 0
-0.203354000000000 -0.484727000000000 0.355254000000000 255 0 0
-0.098951000000000 -0.496941000000000 0.347658000000000 255 0 0
-0.203625000000000 -0.497011000000000 0.357686000000000 255 0 0
-0.089016000000000 -0.533577000000000 0.359089000000000 255 0 0
-0.095997000000000 -0.514023000000000 0.350228000000000 255 0 0
-0.199944000000000 -0.513124000000000 0.353174000000000 255 0 0
-0.199148000000000 -0.530812000000000 0.358374000000000 255 0 0
-0.087799000000000 -0.551268000000000 0.352194000000000 255 0 0
-0.192419000000000 -0.548414000000000 0.349456000000000 255 0 0
-0.082877000000000 -0.566507000000000 0.355699000000000 255 0 0
-0.192353000000000 -0.565573000000000 0.356202000000000 255 0 0
-0.082239000000000 -0.576713000000000 0.353201000000000 255 0 0
-0.188977000000000 -0.579205000000000 0.354420000000000 255 0 0
-0.078743000000000 -0.592338000000000 0.358316000000000 255 0 0
-0.184359000000000 -0.592544000000000 0.353324000000000 255 0 0
-0.079357000000000 -0.610185000000000 0.356348000000000 255 0 0
-0.183693000000000 -0.608840000000000 0.360143000000000 255 0 0
-0.082228000000000 -0.626432000000000 0.355743000000000 255 0 0
-0.177719000000000 -0.623187000000000 0.354879000000000 255 0 0
-0.087007000000000 -0.644710000000000 0.355755000000000 255 0 0
-0.172810000000000 -0.641966000000000 0.358549000000000 255 0 0
-0.085890000000000 -0.661908000000000 0.361006000000000 255 0 0
-0.098577000000000 -0.658205000000000 0.351654000000000 255 0 0
-0.157775000000000 -0.657792000000000 0.351921000000000 255 0 0
-0.167420000000000 -0.661160000000000 0.360823000000000 255 0 0
-0.092992000000000 -0.674706000000000 0.360229000000000 255 0 0
-0.110853000000000 -0.673808000000000 0.351975000000000 255 0 0
-0.143211000000000 -0.671365000000000 0.351240000000000 255 0 0
-0.157046000000000 -0.673563000000000 0.358847000000000 255 0 0
-0.102409000000000 -0.688884000000000 0.360204000000000 255 0 0
-0.113336000000000 -0.687312000000000 0.355632000000000 255 0 0
-0.126480000000000 -0.684258000000000 0.353931000000000 255 0 0
-0.143368000000000 -0.687220000000000 0.358801000000000 255 0 0
-0.115403000000000 -0.699819000000000 0.361204000000000 255 0 0
-0.131290000000000 -0.698681000000000 0.360702000000000 255 0 0
-0.172244000000000 -0.143901000000000 0.338329000000000 255 0 0
-0.151111000000000 -0.156739000000000 0.322530000000000 255 0 0
-0.237661000000000 -0.159896000000000 0.322821000000000 255 0 0
-0.159734000000000 -0.170809000000000 0.334888000000000 255 0 0
-0.139371000000000 -0.189045000000000 0.322123000000000 255 0 0
-0.245806000000000 -0.189516000000000 0.315048000000000 255 0 0
-0.142701000000000 -0.203174000000000 0.335203000000000 255 0 0
-0.244917000000000 -0.203708000000000 0.319505000000000 255 0 0
-0.244725000000000 -0.219613000000000 0.321566000000000 255 0 0
-0.134423000000000 -0.234511000000000 0.336063000000000 255 0 0
-0.240294000000000 -0.238982000000000 0.332142000000000 255 0 0
-0.244764000000000 -0.235087000000000 0.322061000000000 255 0 0
-0.130951000000000 -0.250475000000000 0.335930000000000 255 0 0
-0.238225000000000 -0.251170000000000 0.334263000000000 255 0 0
-0.122901000000000 -0.271267000000000 0.325550000000000 255 0 0
-0.128059000000000 -0.267156000000000 0.337058000000000 255 0 0
-0.235999000000000 -0.266238000000000 0.335499000000000 255 0 0
-0.124108000000000 -0.282995000000000 0.337796000000000 255 0 0
-0.234532000000000 -0.281915000000000 0.336386000000000 255 0 0
-0.117852000000000 -0.313203000000000 0.337187000000000 255 0 0
-0.229017000000000 -0.312297000000000 0.337795000000000 255 0 0
-0.115959000000000 -0.328785000000000 0.337419000000000 255 0 0
-0.226089000000000 -0.327602000000000 0.337265000000000 255 0 0
-0.114883000000000 -0.344578000000000 0.337593000000000 255 0 0
-0.223020000000000 -0.343531000000000 0.337077000000000 255 0 0
-0.114096000000000 -0.360284000000000 0.337592000000000 255 0 0
-0.221135000000000 -0.359017000000000 0.338321000000000 255 0 0
-0.113589000000000 -0.375928000000000 0.337592000000000 255 0 0
-0.219136000000000 -0.373668000000000 0.339482000000000 255 0 0
-0.113103000000000 -0.391609000000000 0.337381000000000 255 0 0
-0.217131000000000 -0.385781000000000 0.341868000000000 255 0 0
-0.112494000000000 -0.407100000000000 0.336273000000000 255 0 0
-0.111864000000000 -0.419532000000000 0.333029000000000 255 0 0
-0.207452000000000 -0.419017000000000 0.335252000000000 255 0 0
-0.104320000000000 -0.454925000000000 0.344268000000000 255 0 0
-0.109288000000000 -0.436060000000000 0.335622000000000 255 0 0
-0.204578000000000 -0.436625000000000 0.338734000000000 255 0 0
-0.203511000000000 -0.449692000000000 0.341786000000000 255 0 0
-0.104254000000000 -0.469187000000000 0.339409000000000 255 0 0
-0.198963000000000 -0.466630000000000 0.337102000000000 255 0 0
-0.104667000000000 -0.484392000000000 0.337161000000000 255 0 0
-0.198193000000000 -0.485037000000000 0.340063000000000 255 0 0
-0.104992000000000 -0.499936000000000 0.336365000000000 255 0 0
-0.198895000000000 -0.499829000000000 0.345016000000000 255 0 0
-0.104844000000000 -0.514013000000000 0.335170000000000 255 0 0
-0.193317000000000 -0.513819000000000 0.338396000000000 255 0 0
-0.099196000000000 -0.532725000000000 0.339535000000000 255 0 0
-0.188407000000000 -0.532413000000000 0.339430000000000 255 0 0
-0.089613000000000 -0.566788000000000 0.343968000000000 255 0 0
-0.095439000000000 -0.551238000000000 0.338441000000000 255 0 0
-0.183064000000000 -0.551653000000000 0.337128000000000 255 0 0
-0.183713000000000 -0.564668000000000 0.341671000000000 255 0 0
-0.085770000000000 -0.582285000000000 0.346399000000000 255 0 0
-0.095507000000000 -0.579802000000000 0.336904000000000 255 0 0
-0.172719000000000 -0.579447000000000 0.334736000000000 255 0 0
-0.183455000000000 -0.579447000000000 0.346111000000000 255 0 0
-0.087637000000000 -0.595330000000000 0.345239000000000 255 0 0
-0.101209000000000 -0.597285000000000 0.335686000000000 255 0 0
-0.172799000000000 -0.594768000000000 0.340127000000000 255 0 0
-0.090056000000000 -0.610884000000000 0.344829000000000 255 0 0
-0.098755000000000 -0.611448000000000 0.338913000000000 255 0 0
-0.110757000000000 -0.612838000000000 0.334886000000000 255 0 0
-0.159013000000000 -0.609734000000000 0.335717000000000 255 0 0
-0.172858000000000 -0.612408000000000 0.346351000000000 255 0 0
-0.096523000000000 -0.625054000000000 0.343866000000000 255 0 0
-0.109327000000000 -0.628862000000000 0.338882000000000 255 0 0
-0.122613000000000 -0.625229000000000 0.335204000000000 255 0 0
-0.141500000000000 -0.622537000000000 0.334610000000000 255 0 0
-0.157951000000000 -0.626391000000000 0.340355000000000 255 0 0
-0.168473000000000 -0.629472000000000 0.347606000000000 255 0 0
-0.103382000000000 -0.641558000000000 0.344690000000000 255 0 0
-0.115772000000000 -0.638028000000000 0.339169000000000 255 0 0
-0.128625000000000 -0.639308000000000 0.338282000000000 255 0 0
-0.143798000000000 -0.640247000000000 0.339754000000000 255 0 0
-0.158153000000000 -0.642177000000000 0.345782000000000 255 0 0
-0.116396000000000 -0.653269000000000 0.343925000000000 255 0 0
-0.132259000000000 -0.651641000000000 0.341312000000000 255 0 0
-0.144101000000000 -0.655547000000000 0.345118000000000 255 0 0
-0.128763000000000 -0.665716000000000 0.346973000000000 255 0 0
-0.155121000000000 -0.141438000000000 0.328272000000000 255 0 0
-0.247629000000000 -0.157877000000000 0.306343000000000 255 0 0
-0.137930000000000 -0.177404000000000 0.310204000000000 255 0 0
-0.145374000000000 -0.173346000000000 0.321843000000000 255 0 0
-0.240538000000000 -0.176147000000000 0.322202000000000 255 0 0
-0.247127000000000 -0.176451000000000 0.307683000000000 255 0 0
-0.134504000000000 -0.204081000000000 0.321866000000000 255 0 0
-0.131181000000000 -0.219464000000000 0.321626000000000 255 0 0
-0.128961000000000 -0.235521000000000 0.320963000000000 255 0 0
-0.125410000000000 -0.254118000000000 0.319232000000000 255 0 0
-0.243672000000000 -0.249527000000000 0.321413000000000 255 0 0
-0.241046000000000 -0.264786000000000 0.320766000000000 255 0 0
-0.243974000000000 -0.259190000000000 0.306526000000000 255 0 0
-0.118993000000000 -0.284026000000000 0.323829000000000 255 0 0
-0.237822000000000 -0.281063000000000 0.321312000000000 255 0 0
-0.115969000000000 -0.298627000000000 0.323186000000000 255 0 0
-0.235595000000000 -0.296603000000000 0.322927000000000 255 0 0
-0.114604000000000 -0.313526000000000 0.322267000000000 255 0 0
-0.233190000000000 -0.311337000000000 0.323882000000000 255 0 0
-0.114096000000000 -0.328996000000000 0.321948000000000 255 0 0
-0.229592000000000 -0.323922000000000 0.325703000000000 255 0 0
-0.114169000000000 -0.344640000000000 0.321948000000000 255 0 0
-0.225511000000000 -0.340146000000000 0.320654000000000 255 0 0
-0.114666000000000 -0.360346000000000 0.321948000000000 255 0 0
-0.221740000000000 -0.357698000000000 0.323772000000000 255 0 0
-0.115220000000000 -0.376139000000000 0.322122000000000 255 0 0
-0.219859000000000 -0.370653000000000 0.327276000000000 255 0 0
-0.115382000000000 -0.391820000000000 0.322205000000000 255 0 0
-0.215378000000000 -0.386776000000000 0.326170000000000 255 0 0
-0.115158000000000 -0.407178000000000 0.321658000000000 255 0 0
-0.207961000000000 -0.407721000000000 0.320615000000000 255 0 0
-0.114130000000000 -0.422288000000000 0.321866000000000 255 0 0
-0.204548000000000 -0.421689000000000 0.322298000000000 255 0 0
-0.113669000000000 -0.434783000000000 0.321208000000000 255 0 0
-0.199634000000000 -0.435114000000000 0.322243000000000 255 0 0
-0.111051000000000 -0.450966000000000 0.326692000000000 255 0 0
-0.198163000000000 -0.452281000000000 0.328709000000000 255 0 0
-0.112759000000000 -0.468707000000000 0.324961000000000 255 0 0
-0.188024000000000 -0.468947000000000 0.320764000000000 255 0 0
-0.115089000000000 -0.485103000000000 0.324242000000000 255 0 0
-0.188235000000000 -0.485273000000000 0.326175000000000 255 0 0
-0.117225000000000 -0.503718000000000 0.324026000000000 255 0 0
-0.175244000000000 -0.500545000000000 0.319005000000000 255 0 0
-0.188434000000000 -0.503207000000000 0.330599000000000 255 0 0
-0.111099000000000 -0.520666000000000 0.328655000000000 255 0 0
-0.125910000000000 -0.519999000000000 0.320421000000000 255 0 0
-0.174074000000000 -0.516416000000000 0.322576000000000 255 0 0
-0.184125000000000 -0.519850000000000 0.330281000000000 255 0 0
-0.104268000000000 -0.544935000000000 0.331273000000000 255 0 0
-0.112534000000000 -0.533409000000000 0.326852000000000 255 0 0
-0.123481000000000 -0.536150000000000 0.322198000000000 255 0 0
-0.137159000000000 -0.532400000000000 0.319438000000000 255 0 0
-0.156643000000000 -0.529046000000000 0.319624000000000 255 0 0
-0.173341000000000 -0.532401000000000 0.326492000000000 255 0 0
-0.113981000000000 -0.547146000000000 0.325286000000000 255 0 0
-0.127144000000000 -0.547600000000000 0.322034000000000 255 0 0
-0.142295000000000 -0.547324000000000 0.321171000000000 255 0 0
-0.158523000000000 -0.547560000000000 0.323390000000000 255 0 0
-0.173270000000000 -0.548600000000000 0.329478000000000 255 0 0
-0.103314000000000 -0.560855000000000 0.331565000000000 255 0 0
-0.116715000000000 -0.559095000000000 0.325023000000000 255 0 0
-0.128496000000000 -0.562325000000000 0.323118000000000 255 0 0
-0.143877000000000 -0.563145000000000 0.322744000000000 255 0 0
-0.159041000000000 -0.563679000000000 0.325126000000000 255 0 0
-0.172728000000000 -0.564411000000000 0.331729000000000 255 0 0
-0.112740000000000 -0.576169000000000 0.328338000000000 255 0 0
-0.129920000000000 -0.577932000000000 0.324270000000000 255 0 0
-0.145040000000000 -0.578317000000000 0.324350000000000 255 0 0
-0.159310000000000 -0.578975000000000 0.327681000000000 255 0 0
-0.119190000000000 -0.593995000000000 0.328722000000000 255 0 0
-0.133586000000000 -0.590517000000000 0.325593000000000 255 0 0
-0.145745000000000 -0.592980000000000 0.326577000000000 255 0 0
-0.159732000000000 -0.593948000000000 0.331549000000000 255 0 0
-0.131132000000000 -0.606844000000000 0.329972000000000 255 0 0
-0.147466000000000 -0.605739000000000 0.330502000000000 255 0 0
-0.143384000000000 -0.142093000000000 0.314010000000000 255 0 0
-0.140785000000000 -0.160255000000000 0.306072000000000 255 0 0
-0.133298000000000 -0.190163000000000 0.308185000000000 255 0 0
-0.250557000000000 -0.192332000000000 0.302142000000000 255 0 0
-0.130622000000000 -0.204826000000000 0.307480000000000 255 0 0
-0.250244000000000 -0.204255000000000 0.304678000000000 255 0 0
-0.128799000000000 -0.219998000000000 0.306317000000000 255 0 0
-0.249760000000000 -0.218595000000000 0.307041000000000 255 0 0
-0.127237000000000 -0.235819000000000 0.304735000000000 255 0 0
-0.248857000000000 -0.233265000000000 0.308421000000000 255 0 0
-0.121165000000000 -0.269925000000000 0.309176000000000 255 0 0
-0.125297000000000 -0.250743000000000 0.299599000000000 255 0 0
-0.247490000000000 -0.245397000000000 0.310468000000000 255 0 0
-0.117135000000000 -0.286340000000000 0.311819000000000 255 0 0
-0.239016000000000 -0.278033000000000 0.303361000000000 255 0 0
-0.115895000000000 -0.298354000000000 0.308386000000000 255 0 0
-0.235968000000000 -0.295702000000000 0.307354000000000 255 0 0
-0.115762000000000 -0.313439000000000 0.306743000000000 255 0 0
-0.234055000000000 -0.308640000000000 0.311724000000000 255 0 0
-0.116408000000000 -0.329207000000000 0.306478000000000 255 0 0
-0.229187000000000 -0.324640000000000 0.310102000000000 255 0 0
-0.118005000000000 -0.345000000000000 0.306797000000000 255 0 0
-0.222386000000000 -0.342845000000000 0.302909000000000 255 0 0
-0.120022000000000 -0.361082000000000 0.307087000000000 255 0 0
-0.220805000000000 -0.355124000000000 0.310797000000000 255 0 0
-0.120682000000000 -0.377309000000000 0.307981000000000 255 0 0
-0.215845000000000 -0.371963000000000 0.311943000000000 255 0 0
-0.120927000000000 -0.393111000000000 0.308795000000000 255 0 0
-0.208108000000000 -0.391483000000000 0.308961000000000 255 0 0
-0.121955000000000 -0.410287000000000 0.308669000000000 255 0 0
-0.199319000000000 -0.407904000000000 0.305640000000000 255 0 0
-0.118231000000000 -0.425919000000000 0.313234000000000 255 0 0
-0.127266000000000 -0.423723000000000 0.304623000000000 255 0 0
-0.189092000000000 -0.422139000000000 0.302370000000000 255 0 0
-0.199178000000000 -0.422333000000000 0.313428000000000 255 0 0
-0.119612000000000 -0.438334000000000 0.313216000000000 255 0 0
-0.131959000000000 -0.440475000000000 0.304720000000000 255 0 0
-0.188632000000000 -0.436823000000000 0.308916000000000 255 0 0
-0.121138000000000 -0.453469000000000 0.314010000000000 255 0 0
-0.128994000000000 -0.453974000000000 0.308186000000000 255 0 0
-0.138477000000000 -0.453970000000000 0.304925000000000 255 0 0
-0.154186000000000 -0.453427000000000 0.302690000000000 255 0 0
-0.172818000000000 -0.450827000000000 0.305046000000000 255 0 0
-0.187866000000000 -0.452728000000000 0.315513000000000 255 0 0
-0.126318000000000 -0.467343000000000 0.313013000000000 255 0 0
-0.142006000000000 -0.469207000000000 0.307400000000000 255 0 0
-0.158329000000000 -0.468984000000000 0.306630000000000 255 0 0
-0.174135000000000 -0.469009000000000 0.310945000000000 255 0 0
-0.129605000000000 -0.485314000000000 0.314352000000000 255 0 0
-0.145325000000000 -0.484603000000000 0.309219000000000 255 0 0
-0.160477000000000 -0.484392000000000 0.309521000000000 255 0 0
-0.174962000000000 -0.484963000000000 0.315609000000000 255 0 0
-0.135223000000000 -0.500821000000000 0.314587000000000 255 0 0
-0.149378000000000 -0.496802000000000 0.310937000000000 255 0 0
-0.161389000000000 -0.499179000000000 0.312979000000000 255 0 0
-0.146736000000000 -0.513218000000000 0.315226000000000 255 0 0
-0.162901000000000 -0.512055000000000 0.316962000000000 255 0 0
-0.126830000000000 -0.127984000000000 0.293640000000000 255 0 0
-0.136743000000000 -0.142176000000000 0.297733000000000 255 0 0
-0.136086000000000 -0.176115000000000 0.293941000000000 255 0 0
-0.138409000000000 -0.156656000000000 0.286600000000000 255 0 0
-0.252713000000000 -0.156516000000000 0.289796000000000 255 0 0
-0.250811000000000 -0.173169000000000 0.291318000000000 255 0 0
-0.131865000000000 -0.192626000000000 0.296026000000000 255 0 0
-0.251200000000000 -0.188689000000000 0.291194000000000 255 0 0
-0.130507000000000 -0.205157000000000 0.292378000000000 255 0 0
-0.251200000000000 -0.203324000000000 0.290537000000000 255 0 0
-0.129305000000000 -0.220690000000000 0.290979000000000 255 0 0
-0.250509000000000 -0.218160000000000 0.291993000000000 255 0 0
-0.128027000000000 -0.235319000000000 0.289456000000000 255 0 0
-0.250003000000000 -0.230612000000000 0.296100000000000 255 0 0
-0.127441000000000 -0.246784000000000 0.285529000000000 255 0 0
-0.246302000000000 -0.246673000000000 0.294683000000000 255 0 0
-0.120255000000000 -0.282259000000000 0.297602000000000 255 0 0
-0.125351000000000 -0.263186000000000 0.288095000000000 255 0 0
-0.240190000000000 -0.266861000000000 0.288855000000000 255 0 0
-0.236713000000000 -0.280112000000000 0.289615000000000 255 0 0
-0.120798000000000 -0.297543000000000 0.292664000000000 255 0 0
-0.232032000000000 -0.293783000000000 0.289535000000000 255 0 0
-0.122146000000000 -0.314047000000000 0.291575000000000 255 0 0
-0.230107000000000 -0.311461000000000 0.297746000000000 255 0 0
-0.123663000000000 -0.330325000000000 0.292320000000000 255 0 0
-0.223158000000000 -0.328626000000000 0.292846000000000 255 0 0
-0.126281000000000 -0.346158000000000 0.293086000000000 255 0 0
-0.214759000000000 -0.344950000000000 0.289652000000000 255 0 0
-0.131364000000000 -0.364136000000000 0.293386000000000 255 0 0
-0.204642000000000 -0.359966000000000 0.286936000000000 255 0 0
-0.214752000000000 -0.359209000000000 0.299080000000000 255 0 0
-0.128021000000000 -0.380997000000000 0.298834000000000 255 0 0
-0.141560000000000 -0.379630000000000 0.289609000000000 255 0 0
-0.204180000000000 -0.377421000000000 0.296196000000000 255 0 0
-0.130417000000000 -0.393851000000000 0.298389000000000 255 0 0
-0.140738000000000 -0.395094000000000 0.292490000000000 255 0 0
-0.152862000000000 -0.391447000000000 0.288342000000000 255 0 0
-0.169020000000000 -0.390396000000000 0.286665000000000 255 0 0
-0.187329000000000 -0.389192000000000 0.289798000000000 255 0 0
-0.198318000000000 -0.394949000000000 0.298412000000000 255 0 0
-0.134415000000000 -0.407715000000000 0.297978000000000 255 0 0
-0.145742000000000 -0.404025000000000 0.292243000000000 255 0 0
-0.157868000000000 -0.406082000000000 0.290975000000000 255 0 0
-0.173650000000000 -0.406499000000000 0.291665000000000 255 0 0
-0.188135000000000 -0.407331000000000 0.296592000000000 255 0 0
-0.143410000000000 -0.420423000000000 0.296955000000000 255 0 0
-0.160766000000000 -0.422018000000000 0.294489000000000 255 0 0
-0.176104000000000 -0.421928000000000 0.296361000000000 255 0 0
-0.148930000000000 -0.438155000000000 0.299560000000000 255 0 0
-0.165443000000000 -0.437249000000000 0.298871000000000 255 0 0
-0.178738000000000 -0.434197000000000 0.301553000000000 255 0 0
-0.125735000000000 -0.126920000000000 0.276920000000000 255 0 0
-0.134930000000000 -0.140492000000000 0.280989000000000 255 0 0
-0.139527000000000 -0.151997000000000 0.271916000000000 255 0 0
-0.252973000000000 -0.155519000000000 0.272480000000000 255 0 0
-0.134852000000000 -0.188893000000000 0.281242000000000 255 0 0
-0.139585000000000 -0.169035000000000 0.272454000000000 255 0 0
-0.250424000000000 -0.172284000000000 0.275124000000000 255 0 0
-0.250244000000000 -0.187618000000000 0.276962000000000 255 0 0
-0.134272000000000 -0.206591000000000 0.274504000000000 255 0 0
-0.250557000000000 -0.199778000000000 0.279392000000000 255 0 0
-0.130801000000000 -0.223448000000000 0.278994000000000 255 0 0
-0.246845000000000 -0.215984000000000 0.275124000000000 255 0 0
-0.130656000000000 -0.235257000000000 0.275663000000000 255 0 0
-0.245988000000000 -0.233839000000000 0.281767000000000 255 0 0
-0.130439000000000 -0.249689000000000 0.274235000000000 255 0 0
-0.239018000000000 -0.253318000000000 0.275243000000000 255 0 0
-0.130622000000000 -0.262769000000000 0.272932000000000 255 0 0
-0.236364000000000 -0.266937000000000 0.276734000000000 255 0 0
-0.128558000000000 -0.279288000000000 0.278814000000000 255 0 0
-0.232291000000000 -0.279377000000000 0.278053000000000 255 0 0
-0.130957000000000 -0.298493000000000 0.277392000000000 255 0 0
-0.225004000000000 -0.294438000000000 0.274742000000000 255 0 0
-0.134034000000000 -0.317183000000000 0.277599000000000 255 0 0
-0.219635000000000 -0.313272000000000 0.279488000000000 255 0 0
-0.132871000000000 -0.333540000000000 0.282838000000000 255 0 0
-0.145263000000000 -0.330097000000000 0.273340000000000 255 0 0
-0.204582000000000 -0.329147000000000 0.273091000000000 255 0 0
-0.214153000000000 -0.332490000000000 0.282144000000000 255 0 0
-0.139598000000000 -0.346300000000000 0.282048000000000 255 0 0
-0.157604000000000 -0.345468000000000 0.273645000000000 255 0 0
-0.190275000000000 -0.342856000000000 0.272535000000000 255 0 0
-0.204158000000000 -0.344954000000000 0.280085000000000 255 0 0
-0.148268000000000 -0.361193000000000 0.282046000000000 255 0 0
-0.160062000000000 -0.359379000000000 0.277295000000000 255 0 0
-0.173688000000000 -0.356360000000000 0.275540000000000 255 0 0
-0.191334000000000 -0.358848000000000 0.279520000000000 255 0 0
-0.160930000000000 -0.373400000000000 0.282281000000000 255 0 0
-0.179859000000000 -0.373945000000000 0.282300000000000 255 0 0
-0.193967000000000 -0.372199000000000 0.286198000000000 255 0 0
-0.136535000000000 -0.138159000000000 0.263037000000000 255 0 0
-0.142847000000000 -0.154430000000000 0.259032000000000 255 0 0
-0.248709000000000 -0.152786000000000 0.254710000000000 255 0 0
-0.144846000000000 -0.167626000000000 0.256328000000000 255 0 0
-0.245544000000000 -0.171495000000000 0.258933000000000 255 0 0
-0.141722000000000 -0.185027000000000 0.261202000000000 255 0 0
-0.244938000000000 -0.188189000000000 0.261779000000000 255 0 0
-0.136188000000000 -0.220587000000000 0.265364000000000 255 0 0
-0.142551000000000 -0.203317000000000 0.255385000000000 255 0 0
-0.245806000000000 -0.202658000000000 0.266464000000000 255 0 0
-0.240230000000000 -0.216641000000000 0.259629000000000 255 0 0
-0.136946000000000 -0.236197000000000 0.261932000000000 255 0 0
-0.235307000000000 -0.235598000000000 0.261560000000000 255 0 0
-0.137906000000000 -0.253107000000000 0.261189000000000 255 0 0
-0.229759000000000 -0.254982000000000 0.261564000000000 255 0 0
-0.136243000000000 -0.268417000000000 0.265843000000000 255 0 0
-0.144159000000000 -0.263828000000000 0.256590000000000 255 0 0
-0.219594000000000 -0.267485000000000 0.256156000000000 255 0 0
-0.230493000000000 -0.267631000000000 0.268027000000000 255 0 0
-0.144676000000000 -0.282244000000000 0.262115000000000 255 0 0
-0.219992000000000 -0.284196000000000 0.264175000000000 255 0 0
-0.142599000000000 -0.302241000000000 0.267391000000000 255 0 0
-0.158049000000000 -0.299980000000000 0.258467000000000 255 0 0
-0.205454000000000 -0.297274000000000 0.258706000000000 255 0 0
-0.215464000000000 -0.300682000000000 0.267525000000000 255 0 0
-0.149811000000000 -0.314569000000000 0.266168000000000 255 0 0
-0.159787000000000 -0.313073000000000 0.260929000000000 255 0 0
-0.170530000000000 -0.311288000000000 0.258475000000000 255 0 0
-0.188683000000000 -0.308961000000000 0.258090000000000 255 0 0
-0.204790000000000 -0.313081000000000 0.266119000000000 255 0 0
-0.161924000000000 -0.325361000000000 0.265073000000000 255 0 0
-0.177521000000000 -0.322729000000000 0.261862000000000 255 0 0
-0.190403000000000 -0.326464000000000 0.265782000000000 255 0 0
-0.175236000000000 -0.337208000000000 0.268173000000000 255 0 0
-0.144366000000000 -0.140842000000000 0.246658000000000 255 0 0
-0.149471000000000 -0.155697000000000 0.245651000000000 255 0 0
-0.240736000000000 -0.153211000000000 0.241426000000000 255 0 0
-0.150781000000000 -0.171204000000000 0.245966000000000 255 0 0
-0.235526000000000 -0.169628000000000 0.243359000000000 255 0 0
-0.150982000000000 -0.186910000000000 0.245376000000000 255 0 0
-0.234953000000000 -0.188086000000000 0.247176000000000 255 0 0
-0.152306000000000 -0.200280000000000 0.243091000000000 255 0 0
-0.235235000000000 -0.206229000000000 0.251040000000000 255 0 0
-0.149002000000000 -0.219964000000000 0.248056000000000 255 0 0
-0.221002000000000 -0.220183000000000 0.241234000000000 255 0 0
-0.231083000000000 -0.222925000000000 0.251030000000000 255 0 0
-0.145175000000000 -0.239554000000000 0.251972000000000 255 0 0
-0.159239000000000 -0.237764000000000 0.242647000000000 255 0 0
-0.220688000000000 -0.235487000000000 0.246338000000000 255 0 0
-0.149954000000000 -0.251623000000000 0.250231000000000 255 0 0
-0.159096000000000 -0.251386000000000 0.244929000000000 255 0 0
-0.172172000000000 -0.251780000000000 0.241289000000000 255 0 0
-0.205717000000000 -0.249195000000000 0.242409000000000 255 0 0
-0.220161000000000 -0.251405000000000 0.251947000000000 255 0 0
-0.157668000000000 -0.264403000000000 0.249332000000000 255 0 0
-0.172134000000000 -0.268140000000000 0.245235000000000 255 0 0
-0.188257000000000 -0.262821000000000 0.243256000000000 255 0 0
-0.205721000000000 -0.265683000000000 0.248108000000000 255 0 0
-0.164635000000000 -0.281413000000000 0.251254000000000 255 0 0
-0.178885000000000 -0.277757000000000 0.246732000000000 255 0 0
-0.191923000000000 -0.279776000000000 0.247711000000000 255 0 0
-0.206375000000000 -0.281502000000000 0.253611000000000 255 0 0
-0.178027000000000 -0.293769000000000 0.252295000000000 255 0 0
-0.194204000000000 -0.292877000000000 0.252815000000000 255 0 0
-0.153914000000000 -0.141438000000000 0.234468000000000 255 0 0
-0.167411000000000 -0.141742000000000 0.225965000000000 255 0 0
-0.182544000000000 -0.141775000000000 0.221479000000000 255 0 0
-0.198999000000000 -0.141191000000000 0.220106000000000 255 0 0
-0.217910000000000 -0.139414000000000 0.221606000000000 255 0 0
-0.235094000000000 -0.143494000000000 0.231477000000000 255 0 0
-0.159528000000000 -0.156616000000000 0.235484000000000 255 0 0
