ply
format ascii 1.0
element vertex 511
property double x
property double y
property double z
property uchar red
property uchar green
property uchar blue
end_header
0.355976000000000 0.520278000000000 0.267019000000000 255 0 0
0.371038000000000 0.516409000000000 0.263660000000000 255 0 0
0.343447000000000 0.516968000000000 0.256982000000000 255 0 0
0.370115000000000 0.500973000000000 0.259438000000000 255 0 0
0.360501000000000 0.504871000000000 0.262601000000000 255 0 0
0.349585000000000 0.501995000000000 0.258319000000000 255 0 0
0.355623000000000 0.487795000000000 0.257416000000000 255 0 0
0.342282000000000 0.484994000000000 0.249553000000000 255 0 0
0.356410000000000 0.469536000000000 0.254877000000000 255 0 0
0.343549000000000 0.469412000000000 0.250407000000000 255 0 0
0.356698000000000 0.453321000000000 0.253849000000000 255 0 0
0.343795000000000 0.453321000000000 0.250228000000000 255 0 0
0.356739000000000 0.437553000000000 0.253363000000000 255 0 0
0.343992000000000 0.437640000000000 0.250190000000000 255 0 0
0.357188000000000 0.421996000000000 0.252971000000000 255 0 0
0.344157000000000 0.422145000000000 0.250267000000000 255 0 0
0.345169000000000 0.406671000000000 0.250070000000000 255 0 0
0.384754000000000 0.529275000000000 0.258581000000000 255 0 0
0.335498000000000 0.531837000000000 0.252571000000000 255 0 0
0.379470000000000 0.512897000000000 0.256460000000000 255 0 0
0.379866000000000 0.501280000000000 0.250521000000000 255 0 0
0.369486000000000 0.485689000000000 0.254155000000000 255 0 0
0.337018000000000 0.483671000000000 0.237262000000000 255 0 0
0.369569000000000 0.469536000000000 0.251146000000000 255 0 0
0.335367000000000 0.468792000000000 0.239758000000000 255 0 0
0.369528000000000 0.453321000000000 0.250228000000000 255 0 0
0.334514000000000 0.453259000000000 0.240605000000000 255 0 0
0.369486000000000 0.437553000000000 0.249596000000000 255 0 0
0.334152000000000 0.437665000000000 0.241068000000000 255 0 0
0.369805000000000 0.422083000000000 0.248235000000000 255 0 0
0.333862000000000 0.422605000000000 0.241874000000000 255 0 0
0.370542000000000 0.407491000000000 0.246172000000000 255 0 0
0.358560000000000 0.407217000000000 0.251473000000000 255 0 0
0.333840000000000 0.407144000000000 0.242245000000000 255 0 0
0.361147000000000 0.395663000000000 0.248870000000000 255 0 0
0.348934000000000 0.392090000000000 0.249219000000000 255 0 0
0.335393000000000 0.390940000000000 0.242851000000000 255 0 0
0.357281000000000 0.381720000000000 0.245797000000000 255 0 0
0.340006000000000 0.373449000000000 0.243372000000000 255 0 0
0.325876000000000 0.374659000000000 0.233725000000000 255 0 0
0.353040000000000 0.362026000000000 0.242563000000000 255 0 0
0.337210000000000 0.356012000000000 0.241004000000000 255 0 0
0.326863000000000 0.358456000000000 0.235278000000000 255 0 0
0.355449000000000 0.344096000000000 0.240784000000000 255 0 0
0.340355000000000 0.343513000000000 0.240815000000000 255 0 0
0.327307000000000 0.342995000000000 0.235318000000000 255 0 0
0.356098000000000 0.328108000000000 0.240099000000000 255 0 0
0.341492000000000 0.328170000000000 0.240465000000000 255 0 0
0.328097000000000 0.328108000000000 0.235420000000000 255 0 0
0.356160000000000 0.312402000000000 0.239385000000000 255 0 0
0.341588000000000 0.312638000000000 0.240148000000000 255 0 0
0.328160000000000 0.313234000000000 0.235858000000000 255 0 0
0.341269000000000 0.296970000000000 0.239492000000000 255 0 0
0.327297000000000 0.297951000000000 0.235298000000000 255 0 0
0.341534000000000 0.281202000000000 0.238352000000000 255 0 0
0.326581000000000 0.281649000000000 0.234383000000000 255 0 0
0.342821000000000 0.266116000000000 0.236709000000000 255 0 0
0.327392000000000 0.265260000000000 0.233715000000000 255 0 0
0.394983000000000 0.536457000000000 0.245459000000000 255 0 0
0.338100000000000 0.531056000000000 0.237103000000000 255 0 0
0.387577000000000 0.518524000000000 0.245450000000000 255 0 0
0.340014000000000 0.515462000000000 0.242593000000000 255 0 0
0.385197000000000 0.504769000000000 0.240127000000000 255 0 0
0.340962000000000 0.499943000000000 0.247015000000000 255 0 0
0.380074000000000 0.487795000000000 0.243401000000000 255 0 0
0.378964000000000 0.469412000000000 0.241824000000000 255 0 0
0.378778000000000 0.453259000000000 0.241184000000000 255 0 0
0.378757000000000 0.437553000000000 0.240398000000000 255 0 0
0.378865000000000 0.422232000000000 0.238447000000000 255 0 0
0.378945000000000 0.407574000000000 0.234814000000000 255 0 0
0.370415000000000 0.393097000000000 0.242135000000000 255 0 0
0.369219000000000 0.376953000000000 0.238297000000000 255 0 0
0.318538000000000 0.373509000000000 0.220246000000000 255 0 0
0.368903000000000 0.360009000000000 0.236143000000000 255 0 0
0.318038000000000 0.358928000000000 0.224011000000000 255 0 0
0.369362000000000 0.343814000000000 0.235163000000000 255 0 0
0.318189000000000 0.343454000000000 0.225023000000000 255 0 0
0.369487000000000 0.328046000000000 0.234315000000000 255 0 0
0.318171000000000 0.327984000000000 0.225628000000000 255 0 0
0.369528000000000 0.312613000000000 0.232469000000000 255 0 0
0.317989000000000 0.313110000000000 0.226857000000000 255 0 0
0.356181000000000 0.296821000000000 0.237636000000000 255 0 0
0.318443000000000 0.300915000000000 0.228816000000000 255 0 0
0.356520000000000 0.281289000000000 0.234929000000000 255 0 0
0.313484000000000 0.284095000000000 0.223588000000000 255 0 0
0.356883000000000 0.265653000000000 0.231914000000000 255 0 0
0.313409000000000 0.265471000000000 0.224483000000000 255 0 0
0.355410000000000 0.249699000000000 0.229311000000000 255 0 0
0.345044000000000 0.253730000000000 0.233947000000000 255 0 0
0.331162000000000 0.250361000000000 0.232759000000000 255 0 0
0.314305000000000 0.246847000000000 0.224409000000000 255 0 0
0.353851000000000 0.233997000000000 0.226369000000000 255 0 0
0.338708000000000 0.237014000000000 0.230497000000000 255 0 0
0.320874000000000 0.233649000000000 0.227128000000000 255 0 0
0.309077000000000 0.230026000000000 0.219450000000000 255 0 0
0.340259000000000 0.219259000000000 0.227240000000000 255 0 0
0.325077000000000 0.218961000000000 0.226193000000000 255 0 0
0.311326000000000 0.217832000000000 0.219904000000000 255 0 0
0.341733000000000 0.204000000000000 0.224898000000000 255 0 0
0.327719000000000 0.203789000000000 0.225071000000000 255 0 0
0.313898000000000 0.202982000000000 0.219594000000000 255 0 0
0.342417000000000 0.189275000000000 0.222167000000000 255 0 0
0.331152000000000 0.191602000000000 0.223705000000000 255 0 0
0.393203000000000 0.530675000000000 0.234312000000000 255 0 0
0.345409000000000 0.529865000000000 0.224608000000000 255 0 0
0.387404000000000 0.517613000000000 0.231028000000000 255 0 0
0.342965000000000 0.515003000000000 0.228900000000000 255 0 0
0.384146000000000 0.501588000000000 0.230435000000000 255 0 0
0.340107000000000 0.497511000000000 0.231642000000000 255 0 0
0.382585000000000 0.485143000000000 0.230655000000000 255 0 0
0.338210000000000 0.481346000000000 0.225937000000000 255 0 0
0.382275000000000 0.468965000000000 0.230237000000000 255 0 0
0.334782000000000 0.468470000000000 0.226800000000000 255 0 0
0.382234000000000 0.453197000000000 0.229244000000000 255 0 0
0.331648000000000 0.453197000000000 0.227624000000000 255 0 0
0.382234000000000 0.437640000000000 0.227926000000000 255 0 0
0.329782000000000 0.437690000000000 0.228189000000000 255 0 0
0.382209000000000 0.422605000000000 0.226115000000000 255 0 0
0.328430000000000 0.422289000000000 0.228999000000000 255 0 0
0.381962000000000 0.409707000000000 0.223340000000000 255 0 0
0.327921000000000 0.409652000000000 0.231970000000000 255 0 0
0.379118000000000 0.393172000000000 0.228511000000000 255 0 0
0.325008000000000 0.392196000000000 0.229174000000000 255 0 0
0.320956000000000 0.384144000000000 0.211950000000000 255 0 0
0.378647000000000 0.375020000000000 0.227159000000000 255 0 0
0.378716000000000 0.359284000000000 0.225776000000000 255 0 0
0.378757000000000 0.343690000000000 0.224899000000000 255 0 0
0.378799000000000 0.328220000000000 0.223784000000000 255 0 0
0.379072000000000 0.313279000000000 0.220683000000000 255 0 0
0.369693000000000 0.297280000000000 0.229241000000000 255 0 0
0.369779000000000 0.281074000000000 0.225035000000000 255 0 0
0.305124000000000 0.280581000000000 0.206730000000000 255 0 0
0.369501000000000 0.262321000000000 0.220610000000000 255 0 0
0.303961000000000 0.265682000000000 0.210501000000000 255 0 0
0.364190000000000 0.245428000000000 0.222490000000000 255 0 0
0.303293000000000 0.249293000000000 0.211312000000000 255 0 0
0.364662000000000 0.233475000000000 0.218893000000000 255 0 0
0.302523000000000 0.232991000000000 0.210596000000000 255 0 0
0.354141000000000 0.219011000000000 0.222894000000000 255 0 0
0.302107000000000 0.217707000000000 0.209733000000000 255 0 0
0.354521000000000 0.203802000000000 0.219182000000000 255 0 0
0.303342000000000 0.202659000000000 0.209559000000000 255 0 0
0.354708000000000 0.188580000000000 0.215569000000000 255 0 0
0.318528000000000 0.188000000000000 0.219143000000000 255 0 0
0.344026000000000 0.176465000000000 0.217821000000000 255 0 0
0.328794000000000 0.175229000000000 0.218359000000000 255 0 0
0.310507000000000 0.169128000000000 0.209046000000000 255 0 0
0.338232000000000 0.159226000000000 0.213435000000000 255 0 0
0.320108000000000 0.155942000000000 0.211519000000000 255 0 0
0.308185000000000 0.151796000000000 0.203875000000000 255 0 0
0.340105000000000 0.140816000000000 0.209047000000000 255 0 0
0.325716000000000 0.141276000000000 0.210070000000000 255 0 0
0.311756000000000 0.139339000000000 0.204473000000000 255 0 0
0.329170000000000 0.128724000000000 0.208297000000000 255 0 0
0.324750000000000 0.112114000000000 0.203862000000000 255 0 0
0.358034000000000 0.546056000000000 0.214310000000000 255 0 0
0.347705000000000 0.542233000000000 0.220600000000000 255 0 0
0.388436000000000 0.536772000000000 0.219952000000000 255 0 0
0.371883000000000 0.531919000000000 0.214869000000000 255 0 0
0.357457000000000 0.527679000000000 0.216787000000000 255 0 0
0.381055000000000 0.516812000000000 0.221075000000000 255 0 0
0.370670000000000 0.514786000000000 0.216081000000000 255 0 0
0.361745000000000 0.511378000000000 0.215226000000000 255 0 0
0.351795000000000 0.514258000000000 0.219269000000000 255 0 0
0.379200000000000 0.500213000000000 0.221249000000000 255 0 0
0.370544000000000 0.499173000000000 0.215669000000000 255 0 0
0.359036000000000 0.498829000000000 0.215143000000000 255 0 0
0.348094000000000 0.499370000000000 0.220523000000000 255 0 0
0.378803000000000 0.484398000000000 0.220770000000000 255 0 0
0.369596000000000 0.483673000000000 0.214742000000000 255 0 0
0.355404000000000 0.481502000000000 0.213739000000000 255 0 0
0.343716000000000 0.486413000000000 0.220668000000000 255 0 0
0.378633000000000 0.468572000000000 0.219776000000000 255 0 0
0.369317000000000 0.467222000000000 0.211917000000000 255 0 0
0.343501000000000 0.469657000000000 0.215329000000000 255 0 0
0.378782000000000 0.452759000000000 0.217956000000000 255 0 0
0.337141000000000 0.452735000000000 0.214887000000000 255 0 0
0.378952000000000 0.437347000000000 0.215681000000000 255 0 0
0.332107000000000 0.437632000000000 0.214871000000000 255 0 0
0.378796000000000 0.421988000000000 0.213570000000000 255 0 0
0.328931000000000 0.422327000000000 0.214896000000000 255 0 0
0.379064000000000 0.403911000000000 0.211956000000000 255 0 0
0.325996000000000 0.404036000000000 0.216349000000000 255 0 0
0.381962000000000 0.387180000000000 0.217013000000000 255 0 0
0.382209000000000 0.374283000000000 0.214325000000000 255 0 0
0.316539000000000 0.370295000000000 0.207954000000000 255 0 0
0.382234000000000 0.359247000000000 0.212890000000000 255 0 0
0.314903000000000 0.358593000000000 0.210215000000000 255 0 0
0.382275000000000 0.343653000000000 0.211796000000000 255 0 0
0.314018000000000 0.343665000000000 0.211413000000000 255 0 0
0.382548000000000 0.328178000000000 0.210222000000000 255 0 0
0.313107000000000 0.327922000000000 0.212131000000000 255 0 0
0.383042000000000 0.315239000000000 0.208584000000000 255 0 0
0.311907000000000 0.312067000000000 0.213265000000000 255 0 0
0.379858000000000 0.299153000000000 0.213985000000000 255 0 0
0.310827000000000 0.297293000000000 0.217019000000000 255 0 0
0.379046000000000 0.281074000000000 0.210564000000000 255 0 0
0.378996000000000 0.265728000000000 0.204603000000000 255 0 0
0.372972000000000 0.247089000000000 0.211764000000000 255 0 0
0.370357000000000 0.234127000000000 0.212038000000000 255 0 0
0.365748000000000 0.221072000000000 0.212727000000000 255 0 0
0.364266000000000 0.203777000000000 0.208773000000000 255 0 0
0.363978000000000 0.188626000000000 0.204086000000000 255 0 0
0.306044000000000 0.186883000000000 0.209423000000000 255 0 0
0.354274000000000 0.173089000000000 0.210283000000000 255 0 0
0.300086000000000 0.171003000000000 0.195964000000000 255 0 0
0.354150000000000 0.154716000000000 0.203812000000000 255 0 0
0.301289000000000 0.154763000000000 0.194979000000000 255 0 0
0.349999000000000 0.137425000000000 0.203067000000000 255 0 0
0.302074000000000 0.138917000000000 0.194106000000000 255 0 0
0.340082000000000 0.125292000000000 0.204906000000000 255 0 0
0.316751000000000 0.125144000000000 0.204632000000000 255 0 0
0.303673000000000 0.121552000000000 0.194239000000000 255 0 0
0.339468000000000 0.109680000000000 0.200737000000000 255 0 0
0.308703000000000 0.108383000000000 0.198148000000000 255 0 0
0.299895000000000 0.105540000000000 0.189764000000000 255 0 0
0.338519000000000 0.094030000000000 0.197325000000000 255 0 0
0.327930000000000 0.097292000000000 0.200774000000000 255 0 0
0.313102000000000 0.091690000000000 0.197772000000000 255 0 0
0.300800000000000 0.093131000000000 0.189869000000000 255 0 0
0.323448000000000 0.080102000000000 0.197195000000000 255 0 0
0.308929000000000 0.074501000000000 0.194618000000000 255 0 0
0.300286000000000 0.077301000000000 0.189026000000000 255 0 0
0.325360000000000 0.063277000000000 0.194291000000000 255 0 0
0.311622000000000 0.062390000000000 0.194157000000000 255 0 0
0.300175000000000 0.061909000000000 0.188747000000000 255 0 0
0.325207000000000 0.047698000000000 0.191881000000000 255 0 0
0.314095000000000 0.050339000000000 0.193165000000000 255 0 0
0.309073000000000 0.034270000000000 0.189764000000000 255 0 0
0.309995000000000 0.016141000000000 0.189474000000000 255 0 0
0.311600000000000 -0.000658000000000 0.193452000000000 255 0 0
0.342728000000000 -0.015588000000000 0.193077000000000 255 0 0
0.319678000000000 -0.024302000000000 0.213992000000000 255 0 0
0.329122000000000 -0.017330000000000 0.202561000000000 255 0 0
0.303054000000000 -0.024295000000000 0.213995000000000 255 0 0
0.314907000000000 -0.014913000000000 0.202416000000000 255 0 0
0.295267000000000 -0.015597000000000 0.198874000000000 255 0 0
0.370314000000000 0.451252000000000 0.208985000000000 255 0 0
0.357798000000000 0.462087000000000 0.208307000000000 255 0 0
0.360899000000000 0.448008000000000 0.203911000000000 255 0 0
0.348881000000000 0.451104000000000 0.206212000000000 255 0 0
0.370356000000000 0.436316000000000 0.206239000000000 255 0 0
0.357669000000000 0.435415000000000 0.201384000000000 255 0 0
0.342458000000000 0.434404000000000 0.203779000000000 255 0 0
0.369505000000000 0.420531000000000 0.203429000000000 255 0 0
0.355397000000000 0.417707000000000 0.196402000000000 255 0 0
0.341534000000000 0.418117000000000 0.197772000000000 255 0 0
0.334394000000000 0.424391000000000 0.205142000000000 255 0 0
0.378882000000000 0.389396000000000 0.205067000000000 255 0 0
0.369931000000000 0.404416000000000 0.198558000000000 255 0 0
0.334273000000000 0.407524000000000 0.200696000000000 255 0 0
0.327709000000000 0.389016000000000 0.199992000000000 255 0 0
0.378865000000000 0.374655000000000 0.201283000000000 255 0 0
0.321767000000000 0.373716000000000 0.198637000000000 255 0 0
0.378716000000000 0.359210000000000 0.199653000000000 255 0 0
0.318601000000000 0.359459000000000 0.197602000000000 255 0 0
0.378927000000000 0.343069000000000 0.197954000000000 255 0 0
0.316310000000000 0.344121000000000 0.197313000000000 255 0 0
0.379954000000000 0.325343000000000 0.195568000000000 255 0 0
0.313987000000000 0.328046000000000 0.197418000000000 255 0 0
0.383042000000000 0.309566000000000 0.200804000000000 255 0 0
0.311609000000000 0.311794000000000 0.197931000000000 255 0 0
0.382548000000000 0.296652000000000 0.198796000000000 255 0 0
0.307926000000000 0.293875000000000 0.199167000000000 255 0 0
0.382192000000000 0.281798000000000 0.195744000000000 255 0 0
0.303864000000000 0.277211000000000 0.192849000000000 255 0 0
0.381320000000000 0.269747000000000 0.191817000000000 255 0 0
0.300532000000000 0.264825000000000 0.195072000000000 255 0 0
0.377619000000000 0.253523000000000 0.193715000000000 255 0 0
0.298889000000000 0.249740000000000 0.196359000000000 255 0 0
0.373053000000000 0.235254000000000 0.202389000000000 255 0 0
0.297894000000000 0.233972000000000 0.196624000000000 255 0 0
0.370470000000000 0.219747000000000 0.197669000000000 255 0 0
0.297527000000000 0.218303000000000 0.196305000000000 255 0 0
0.369257000000000 0.203976000000000 0.194937000000000 255 0 0
0.297697000000000 0.202809000000000 0.196189000000000 255 0 0
0.368634000000000 0.191419000000000 0.191953000000000 255 0 0
0.298384000000000 0.187127000000000 0.196218000000000 255 0 0
0.364567000000000 0.174838000000000 0.195620000000000 255 0 0
0.364020000000000 0.157775000000000 0.189765000000000 255 0 0
0.358739000000000 0.143426000000000 0.195863000000000 255 0 0
0.353350000000000 0.124918000000000 0.193738000000000 255 0 0
0.348266000000000 0.106179000000000 0.194017000000000 255 0 0
0.348713000000000 0.094233000000000 0.188386000000000 255 0 0
0.338150000000000 0.078846000000000 0.192234000000000 255 0 0
0.338393000000000 0.063032000000000 0.188302000000000 255 0 0
0.338244000000000 0.047003000000000 0.185341000000000 255 0 0
0.301007000000000 0.045770000000000 0.188062000000000 255 0 0
0.324611000000000 0.031533000000000 0.189470000000000 255 0 0
0.297542000000000 0.032457000000000 0.185539000000000 255 0 0
0.325899000000000 0.014846000000000 0.188743000000000 255 0 0
0.294630000000000 0.018538000000000 0.182593000000000 255 0 0
0.329852000000000 -0.003092000000000 0.191727000000000 255 0 0
0.295577000000000 0.001023000000000 0.187789000000000 255 0 0
0.285440000000000 0.003162000000000 0.177729000000000 255 0 0
0.358180000000000 -0.017275000000000 0.176815000000000 255 0 0
0.279088000000000 -0.011873000000000 0.183611000000000 255 0 0
0.360291000000000 0.401628000000000 0.191859000000000 255 0 0
0.370343000000000 0.389517000000000 0.194018000000000 255 0 0
0.347930000000000 0.404327000000000 0.192288000000000 255 0 0
0.357809000000000 0.389098000000000 0.188143000000000 255 0 0
0.341944000000000 0.387299000000000 0.189472000000000 255 0 0
0.369644000000000 0.374469000000000 0.190988000000000 255 0 0
0.356393000000000 0.373128000000000 0.185128000000000 255 0 0
0.343908000000000 0.370285000000000 0.183731000000000 255 0 0
0.331996000000000 0.374096000000000 0.189149000000000 255 0 0
0.369221000000000 0.358275000000000 0.188605000000000 255 0 0
0.354410000000000 0.355035000000000 0.180790000000000 255 0 0
0.336998000000000 0.358495000000000 0.182349000000000 255 0 0
0.325515000000000 0.362687000000000 0.189487000000000 255 0 0
0.369945000000000 0.341800000000000 0.185805000000000 255 0 0
0.326635000000000 0.346021000000000 0.184591000000000 255 0 0
0.379159000000000 0.311439000000000 0.188807000000000 255 0 0
0.370476000000000 0.326408000000000 0.181217000000000 255 0 0
0.321491000000000 0.328291000000000 0.184131000000000 255 0 0
0.317784000000000 0.311931000000000 0.183822000000000 255 0 0
0.378799000000000 0.296759000000000 0.185137000000000 255 0 0
0.313528000000000 0.296232000000000 0.183838000000000 255 0 0
0.378227000000000 0.281971000000000 0.182833000000000 255 0 0
0.308861000000000 0.280746000000000 0.182558000000000 255 0 0
0.376890000000000 0.267221000000000 0.181328000000000 255 0 0
0.305218000000000 0.265107000000000 0.181086000000000 255 0 0
0.374298000000000 0.254465000000000 0.179246000000000 255 0 0
0.301142000000000 0.249715000000000 0.181393000000000 255 0 0
0.372850000000000 0.237812000000000 0.184485000000000 255 0 0
0.298494000000000 0.234270000000000 0.181762000000000 255 0 0
0.369849000000000 0.219399000000000 0.182114000000000 255 0 0
0.297745000000000 0.218775000000000 0.181646000000000 255 0 0
0.368874000000000 0.203789000000000 0.180918000000000 255 0 0
0.297387000000000 0.203107000000000 0.181327000000000 255 0 0
0.367902000000000 0.188477000000000 0.180735000000000 255 0 0
0.296977000000000 0.187314000000000 0.181154000000000 255 0 0
0.367045000000000 0.173069000000000 0.179732000000000 255 0 0
0.296853000000000 0.171546000000000 0.181154000000000 255 0 0
0.366265000000000 0.160463000000000 0.176806000000000 255 0 0
0.296993000000000 0.155753000000000 0.180980000000000 255 0 0
0.362797000000000 0.144046000000000 0.181092000000000 255 0 0
0.297269000000000 0.139960000000000 0.180661000000000 255 0 0
0.359756000000000 0.126507000000000 0.175743000000000 255 0 0
0.297320000000000 0.123894000000000 0.180599000000000 255 0 0
0.355278000000000 0.109957000000000 0.183925000000000 255 0 0
0.296240000000000 0.108067000000000 0.180463000000000 255 0 0
0.354168000000000 0.098081000000000 0.177494000000000 255 0 0
0.295536000000000 0.095778000000000 0.181756000000000 255 0 0
0.349040000000000 0.081054000000000 0.180354000000000 255 0 0
0.292866000000000 0.079542000000000 0.176911000000000 255 0 0
0.290236000000000 0.074482000000000 0.162053000000000 255 0 0
0.347718000000000 0.062846000000000 0.177264000000000 255 0 0
0.291918000000000 0.062312000000000 0.178605000000000 255 0 0
0.287881000000000 0.061579000000000 0.164459000000000 255 0 0
0.347805000000000 0.047395000000000 0.173813000000000 255 0 0
0.292109000000000 0.049411000000000 0.180920000000000 255 0 0
0.286286000000000 0.044141000000000 0.166645000000000 255 0 0
0.338613000000000 0.031334000000000 0.182133000000000 255 0 0
0.289810000000000 0.032843000000000 0.176644000000000 255 0 0
0.340384000000000 0.015033000000000 0.179824000000000 255 0 0
0.282428000000000 0.012782000000000 0.168196000000000 255 0 0
0.346151000000000 -0.000988000000000 0.179159000000000 255 0 0
0.359785000000000 0.338531000000000 0.177800000000000 255 0 0
0.344700000000000 0.339885000000000 0.175947000000000 255 0 0
0.369938000000000 0.311782000000000 0.177261000000000 255 0 0
0.358061000000000 0.326023000000000 0.173390000000000 255 0 0
0.346796000000000 0.323696000000000 0.170593000000000 255 0 0
0.334110000000000 0.327236000000000 0.174655000000000 255 0 0
0.357335000000000 0.311422000000000 0.170154000000000 255 0 0
0.343239000000000 0.311385000000000 0.168931000000000 255 0 0
0.329052000000000 0.311732000000000 0.173592000000000 255 0 0
0.369449000000000 0.296635000000000 0.174517000000000 255 0 0
0.355850000000000 0.295952000000000 0.168091000000000 255 0 0
0.340385000000000 0.295517000000000 0.166992000000000 255 0 0
0.324581000000000 0.294098000000000 0.171851000000000 255 0 0
0.368661000000000 0.280866000000000 0.172598000000000 255 0 0
0.354077000000000 0.277795000000000 0.164670000000000 255 0 0
0.336577000000000 0.279518000000000 0.163265000000000 255 0 0
0.324209000000000 0.278065000000000 0.166006000000000 255 0 0
0.316718000000000 0.283635000000000 0.173709000000000 255 0 0
0.368278000000000 0.265334000000000 0.170593000000000 255 0 0
0.316387000000000 0.267273000000000 0.168713000000000 255 0 0
0.367247000000000 0.250315000000000 0.169694000000000 255 0 0
0.309949000000000 0.249579000000000 0.168273000000000 255 0 0
0.365178000000000 0.234721000000000 0.169262000000000 255 0 0
0.305374000000000 0.234208000000000 0.168350000000000 255 0 0
0.364014000000000 0.218750000000000 0.168443000000000 255 0 0
0.302759000000000 0.219371000000000 0.168218000000000 255 0 0
0.363507000000000 0.203069000000000 0.168025000000000 255 0 0
0.302200000000000 0.204034000000000 0.167337000000000 255 0 0
0.363262000000000 0.187425000000000 0.167268000000000 255 0 0
0.301749000000000 0.187794000000000 0.166332000000000 255 0 0
0.363031000000000 0.172266000000000 0.166105000000000 255 0 0
0.299802000000000 0.171670000000000 0.166068000000000 255 0 0
0.362077000000000 0.157230000000000 0.165596000000000 255 0 0
0.298218000000000 0.155964000000000 0.166089000000000 255 0 0
0.360390000000000 0.141884000000000 0.164794000000000 255 0 0
0.297577000000000 0.140258000000000 0.166068000000000 255 0 0
0.357915000000000 0.129146000000000 0.162182000000000 255 0 0
0.296842000000000 0.124428000000000 0.166110000000000 255 0 0
0.356405000000000 0.112948000000000 0.167204000000000 255 0 0
0.295447000000000 0.108490000000000 0.166454000000000 255 0 0
0.353191000000000 0.095151000000000 0.165903000000000 255 0 0
0.293195000000000 0.091200000000000 0.167416000000000 255 0 0
0.351463000000000 0.078427000000000 0.165251000000000 255 0 0
0.351302000000000 0.062356000000000 0.163735000000000 255 0 0
0.351754000000000 0.049294000000000 0.162055000000000 255 0 0
0.348934000000000 0.033261000000000 0.167669000000000 255 0 0
0.282678000000000 0.026780000000000 0.162572000000000 255 0 0
0.349829000000000 0.015331000000000 0.165866000000000 255 0 0
0.354495000000000 -0.000495000000000 0.163399000000000 255 0 0
0.277062000000000 -0.002768000000000 0.170343000000000 255 0 0
0.363297000000000 -0.014477000000000 0.157518000000000 255 0 0
0.359302000000000 0.261523000000000 0.163319000000000 255 0 0
0.346842000000000 0.263981000000000 0.159537000000000 255 0 0
0.331519000000000 0.264557000000000 0.160437000000000 255 0 0
0.356514000000000 0.249144000000000 0.160892000000000 255 0 0
0.342516000000000 0.248962000000000 0.156476000000000 255 0 0
0.326094000000000 0.246972000000000 0.158301000000000 255 0 0
0.354596000000000 0.233947000000000 0.159489000000000 255 0 0
0.341322000000000 0.232982000000000 0.154502000000000 255 0 0
0.329748000000000 0.229867000000000 0.153304000000000 255 0 0
0.317241000000000 0.233132000000000 0.158225000000000 255 0 0
0.353830000000000 0.218179000000000 0.158360000000000 255 0 0
0.340826000000000 0.217136000000000 0.152605000000000 255 0 0
0.326229000000000 0.217372000000000 0.152373000000000 255 0 0
0.312379000000000 0.219011000000000 0.158026000000000 255 0 0
0.353594000000000 0.202151000000000 0.157416000000000 255 0 0
0.338854000000000 0.199660000000000 0.150099000000000 255 0 0
0.321083000000000 0.203227000000000 0.151401000000000 255 0 0
0.309212000000000 0.206989000000000 0.158480000000000 255 0 0
0.354190000000000 0.186147000000000 0.155841000000000 255 0 0
0.313235000000000 0.189788000000000 0.153714000000000 255 0 0
0.354534000000000 0.170950000000000 0.154385000000000 255 0 0
0.308983000000000 0.171521000000000 0.152976000000000 255 0 0
0.353354000000000 0.155964000000000 0.153251000000000 255 0 0
0.305486000000000 0.155815000000000 0.152721000000000 255 0 0
0.352220000000000 0.140978000000000 0.152071000000000 255 0 0
0.303382000000000 0.140196000000000 0.152721000000000 255 0 0
0.350764000000000 0.125856000000000 0.152340000000000 255 0 0
0.302152000000000 0.124105000000000 0.152555000000000 255 0 0
0.349065000000000 0.109914000000000 0.152998000000000 255 0 0
0.299609000000000 0.108424000000000 0.152665000000000 255 0 0
0.347997000000000 0.093661000000000 0.152862000000000 255 0 0
0.296212000000000 0.093479000000000 0.152889000000000 255 0 0
0.347635000000000 0.077335000000000 0.151848000000000 255 0 0
0.293244000000000 0.077894000000000 0.151467000000000 255 0 0
0.348538000000000 0.059419000000000 0.149560000000000 255 0 0
0.290517000000000 0.061824000000000 0.150117000000000 255 0 0
0.351754000000000 0.043620000000000 0.154605000000000 255 0 0
0.286812000000000 0.045877000000000 0.150492000000000 255 0 0
0.351550000000000 0.030681000000000 0.152886000000000 255 0 0
0.283305000000000 0.029563000000000 0.150424000000000 255 0 0
0.352622000000000 0.015020000000000 0.150832000000000 255 0 0
0.279653000000000 0.013314000000000 0.151532000000000 255 0 0
0.356099000000000 -0.000731000000000 0.147365000000000 255 0 0
0.273689000000000 -0.001654000000000 0.157302000000000 255 0 0
0.363586000000000 -0.014588000000000 0.141295000000000 255 0 0
0.344408000000000 0.182946000000000 0.148691000000000 255 0 0
0.330596000000000 0.186147000000000 0.147045000000000 255 0 0
0.341877000000000 0.170233000000000 0.146364000000000 255 0 0
0.325454000000000 0.168689000000000 0.144685000000000 255 0 0
0.341012000000000 0.154825000000000 0.144677000000000 255 0 0
0.329920000000000 0.151796000000000 0.140777000000000 255 0 0
0.317492000000000 0.154887000000000 0.143707000000000 255 0 0
0.340562000000000 0.139724000000000 0.143595000000000 255 0 0
0.327343000000000 0.139488000000000 0.140086000000000 255 0 0
0.313985000000000 0.140022000000000 0.143450000000000 255 0 0
0.339374000000000 0.124713000000000 0.143529000000000 255 0 0
0.325849000000000 0.124465000000000 0.139974000000000 255 0 0
0.312582000000000 0.124105000000000 0.143285000000000 255 0 0
0.338406000000000 0.109032000000000 0.143533000000000 255 0 0
0.325137000000000 0.108312000000000 0.139539000000000 255 0 0
0.310735000000000 0.105776000000000 0.141868000000000 255 0 0
0.338079000000000 0.092929000000000 0.142788000000000 255 0 0
0.325079000000000 0.091563000000000 0.137573000000000 255 0 0
0.313999000000000 0.088770000000000 0.136719000000000 255 0 0
0.303736000000000 0.092830000000000 0.142273000000000 255 0 0
0.338170000000000 0.076366000000000 0.140996000000000 255 0 0
0.324081000000000 0.073828000000000 0.133581000000000 255 0 0
0.308270000000000 0.077331000000000 0.135596000000000 255 0 0
0.299336000000000 0.081301000000000 0.142856000000000 255 0 0
0.347896000000000 0.045344000000000 0.143506000000000 255 0 0
0.338828000000000 0.060251000000000 0.136936000000000 255 0 0
0.300583000000000 0.064360000000000 0.137753000000000 255 0 0
0.339056000000000 0.045352000000000 0.132369000000000 255 0 0
0.294682000000000 0.046221000000000 0.137121000000000 255 0 0
0.347691000000000 0.030490000000000 0.139809000000000 255 0 0
0.289801000000000 0.030391000000000 0.136887000000000 255 0 0
0.348476000000000 0.014483000000000 0.136432000000000 255 0 0
0.284603000000000 0.014251000000000 0.136810000000000 255 0 0
0.351702000000000 -0.003599000000000 0.130457000000000 255 0 0
0.275314000000000 -0.003541000000000 0.138851000000000 255 0 0
0.363002000000000 -0.017464000000000 0.127653000000000 255 0 0
0.328953000000000 0.057631000000000 0.130464000000000 255 0 0
0.315955000000000 0.060834000000000 0.130139000000000 255 0 0
0.338459000000000 0.030242000000000 0.129518000000000 255 0 0
0.326348000000000 0.045082000000000 0.126840000000000 255 0 0
0.310265000000000 0.043538000000000 0.127564000000000 255 0 0
0.325434000000000 0.029401000000000 0.123330000000000 255 0 0
0.313831000000000 0.026571000000000 0.121880000000000 255 0 0
0.301456000000000 0.029736000000000 0.126732000000000 255 0 0
0.338196000000000 0.013759000000000 0.125111000000000 255 0 0
0.323967000000000 0.013601000000000 0.118919000000000 255 0 0
0.309257000000000 0.014213000000000 0.119190000000000 255 0 0
0.295382000000000 0.014809000000000 0.125489000000000 255 0 0
0.354252000000000 -0.016340000000000 0.115534000000000 255 0 0
0.336816000000000 -0.003952000000000 0.115192000000000 255 0 0
0.318235000000000 -0.000908000000000 0.111933000000000 255 0 0
0.302434000000000 -0.000147000000000 0.114646000000000 255 0 0
0.287955000000000 -0.000681000000000 0.123451000000000 255 0 0
0.342918000000000 -0.019617000000000 0.101242000000000 255 0 0
0.326080000000000 -0.014971000000000 0.101287000000000 255 0 0
0.309000000000000 -0.013697000000000 0.102416000000000 255 0 0
0.292342000000000 -0.013697000000000 0.109038000000000 255 0 0
