ply
format ascii 1.0
element vertex 761
property double x
property double y
property double z
property uchar red
property uchar green
property uchar blue
end_header
-0.165330000000000 0.810231000000000 0.513484000000000 255 0 0
-0.177086000000000 0.809134000000000 0.510217000000000 255 0 0
-0.190836000000000 0.806936000000000 0.509617000000000 255 0 0
0.041855000000000 0.787715000000000 0.511687000000000 255 0 0
0.022151000000000 0.790059000000000 0.509919000000000 255 0 0
0.004823000000000 0.792321000000000 0.510482000000000 255 0 0
-0.008951000000000 0.794588000000000 0.513842000000000 255 0 0
-0.021578000000000 0.794357000000000 0.510813000000000 255 0 0
-0.037213000000000 0.794704000000000 0.509675000000000 255 0 0
-0.052609000000000 0.795338000000000 0.508483000000000 255 0 0
-0.064965000000000 0.795352000000000 0.505369000000000 255 0 0
-0.078793000000000 0.797628000000000 0.507878000000000 255 0 0
-0.097841000000000 0.800168000000000 0.507176000000000 255 0 0
-0.203926000000000 0.800498000000000 0.508963000000000 255 0 0
0.123050000000000 0.778032000000000 0.509414000000000 255 0 0
0.106959000000000 0.779913000000000 0.509170000000000 255 0 0
0.091306000000000 0.781634000000000 0.507891000000000 255 0 0
0.078885000000000 0.782584000000000 0.504266000000000 255 0 0
0.062527000000000 0.784055000000000 0.505199000000000 255 0 0
-0.215019000000000 0.790688000000000 0.504788000000000 255 0 0
0.201915000000000 0.771737000000000 0.489649000000000 255 0 0
0.186285000000000 0.773571000000000 0.494108000000000 255 0 0
-0.223122000000000 0.779456000000000 0.513234000000000 255 0 0
0.224371000000000 0.763095000000000 0.485134000000000 255 0 0
0.208727000000000 0.763095000000000 0.493028000000000 255 0 0
-0.230777000000000 0.765880000000000 0.504977000000000 255 0 0
0.213644000000000 0.749884000000000 0.494576000000000 255 0 0
0.198000000000000 0.749884000000000 0.501694000000000 255 0 0
-0.233777000000000 0.753694000000000 0.510871000000000 255 0 0
0.216644000000000 0.735172000000000 0.492151000000000 255 0 0
0.201137000000000 0.735209000000000 0.498787000000000 255 0 0
-0.238079000000000 0.736869000000000 0.506012000000000 255 0 0
-0.242862000000000 0.734051000000000 0.487931000000000 255 0 0
0.189454000000000 0.722574000000000 0.499770000000000 255 0 0
0.172759000000000 0.717631000000000 0.503351000000000 255 0 0
-0.244927000000000 0.719264000000000 0.492305000000000 255 0 0
0.157038000000000 0.706000000000000 0.502804000000000 255 0 0
0.138633000000000 0.704058000000000 0.508270000000000 255 0 0
-0.245153000000000 0.703325000000000 0.493415000000000 255 0 0
0.134884000000000 0.686358000000000 0.499048000000000 255 0 0
0.124969000000000 0.690985000000000 0.504536000000000 255 0 0
0.108868000000000 0.690395000000000 0.509023000000000 255 0 0
0.087446000000000 0.685526000000000 0.510889000000000 255 0 0
-0.244551000000000 0.686982000000000 0.493368000000000 255 0 0
0.099810000000000 0.671588000000000 0.500180000000000 255 0 0
0.085359000000000 0.668465000000000 0.502077000000000 255 0 0
0.073212000000000 0.671709000000000 0.506531000000000 255 0 0
-0.244066000000000 0.670755000000000 0.492329000000000 255 0 0
0.088948000000000 0.656033000000000 0.495373000000000 255 0 0
0.074284000000000 0.656697000000000 0.499497000000000 255 0 0
0.062227000000000 0.659785000000000 0.503711000000000 255 0 0
0.045921000000000 0.655302000000000 0.505291000000000 255 0 0
-0.230328000000000 0.655429000000000 0.502193000000000 255 0 0
0.075539000000000 0.641581000000000 0.493088000000000 255 0 0
0.057902000000000 0.643111000000000 0.497861000000000 255 0 0
0.041004000000000 0.638525000000000 0.499897000000000 255 0 0
0.031234000000000 0.643377000000000 0.503470000000000 255 0 0
0.014871000000000 0.639115000000000 0.504834000000000 255 0 0
-0.218789000000000 0.643735000000000 0.503785000000000 255 0 0
-0.234329000000000 0.638763000000000 0.492122000000000 255 0 0
0.043936000000000 0.625354000000000 0.494007000000000 255 0 0
0.026262000000000 0.626900000000000 0.498068000000000 255 0 0
0.009939000000000 0.622802000000000 0.499625000000000 255 0 0
0.000333000000000 0.627669000000000 0.503019000000000 255 0 0
-0.015838000000000 0.623545000000000 0.504181000000000 255 0 0
-0.169764000000000 0.625851000000000 0.506781000000000 255 0 0
-0.186248000000000 0.625118000000000 0.504390000000000 255 0 0
-0.204294000000000 0.628642000000000 0.502405000000000 255 0 0
-0.220659000000000 0.626148000000000 0.495536000000000 255 0 0
0.013562000000000 0.609988000000000 0.493372000000000 255 0 0
-0.004209000000000 0.611093000000000 0.497195000000000 255 0 0
-0.020835000000000 0.606943000000000 0.498590000000000 255 0 0
-0.030061000000000 0.612651000000000 0.502237000000000 255 0 0
-0.043721000000000 0.610740000000000 0.502823000000000 255 0 0
-0.059835000000000 0.610652000000000 0.503642000000000 255 0 0
-0.075210000000000 0.611016000000000 0.504050000000000 255 0 0
-0.089839000000000 0.610933000000000 0.503553000000000 255 0 0
-0.104908000000000 0.610420000000000 0.502470000000000 255 0 0
-0.120630000000000 0.610285000000000 0.501817000000000 255 0 0
-0.136729000000000 0.610733000000000 0.501535000000000 255 0 0
-0.155341000000000 0.612427000000000 0.501440000000000 255 0 0
-0.175535000000000 0.607206000000000 0.497636000000000 255 0 0
-0.194994000000000 0.610686000000000 0.496841000000000 255 0 0
-0.209664000000000 0.614229000000000 0.494783000000000 255 0 0
-0.035530000000000 0.597096000000000 0.495673000000000 255 0 0
-0.054318000000000 0.596183000000000 0.496351000000000 255 0 0
-0.070446000000000 0.597391000000000 0.497328000000000 255 0 0
-0.083102000000000 0.600224000000000 0.498452000000000 255 0 0
-0.164130000000000 0.803715000000000 0.497451000000000 255 0 0
-0.182640000000000 0.803454000000000 0.496174000000000 255 0 0
-0.008337000000000 0.788197000000000 0.496673000000000 255 0 0
-0.026809000000000 0.788470000000000 0.494635000000000 255 0 0
-0.042854000000000 0.788755000000000 0.493857000000000 255 0 0
-0.057873000000000 0.789047000000000 0.493199000000000 255 0 0
-0.072610000000000 0.789607000000000 0.492987000000000 255 0 0
-0.088192000000000 0.790334000000000 0.492656000000000 255 0 0
-0.102255000000000 0.790454000000000 0.490362000000000 255 0 0
-0.114070000000000 0.796293000000000 0.495336000000000 255 0 0
-0.126785000000000 0.801371000000000 0.499240000000000 255 0 0
-0.143195000000000 0.800278000000000 0.493951000000000 255 0 0
-0.195366000000000 0.802171000000000 0.498187000000000 255 0 0
-0.205923000000000 0.796177000000000 0.495023000000000 255 0 0
0.170706000000000 0.777750000000000 0.493247000000000 255 0 0
0.154714000000000 0.778843000000000 0.493855000000000 255 0 0
0.138197000000000 0.779617000000000 0.494242000000000 255 0 0
0.121920000000000 0.780491000000000 0.494130000000000 255 0 0
0.106032000000000 0.781078000000000 0.493857000000000 255 0 0
0.090930000000000 0.781273000000000 0.492938000000000 255 0 0
0.076152000000000 0.781146000000000 0.491585000000000 255 0 0
0.063252000000000 0.780566000000000 0.488935000000000 255 0 0
0.048928000000000 0.782065000000000 0.492860000000000 255 0 0
0.031401000000000 0.783831000000000 0.493708000000000 255 0 0
0.011694000000000 0.784463000000000 0.491495000000000 255 0 0
-0.215284000000000 0.787637000000000 0.492346000000000 255 0 0
0.233202000000000 0.771737000000000 0.474092000000000 255 0 0
0.217417000000000 0.773610000000000 0.478767000000000 255 0 0
-0.223890000000000 0.778646000000000 0.498001000000000 255 0 0
0.256196000000000 0.762467000000000 0.469012000000000 255 0 0
0.240097000000000 0.763033000000000 0.477529000000000 255 0 0
-0.230749000000000 0.764004000000000 0.489441000000000 255 0 0
0.244799000000000 0.749711000000000 0.479352000000000 255 0 0
0.229225000000000 0.749947000000000 0.486827000000000 255 0 0
-0.237221000000000 0.750539000000000 0.497036000000000 255 0 0
0.246972000000000 0.734836000000000 0.477316000000000 255 0 0
0.231928000000000 0.735432000000000 0.484646000000000 255 0 0
0.233193000000000 0.720406000000000 0.479279000000000 255 0 0
0.220314000000000 0.722506000000000 0.485908000000000 255 0 0
0.203841000000000 0.718115000000000 0.491018000000000 255 0 0
0.198269000000000 0.701263000000000 0.483168000000000 255 0 0
0.185776000000000 0.707736000000000 0.492374000000000 255 0 0
0.169035000000000 0.698552000000000 0.493414000000000 255 0 0
0.164867000000000 0.683995000000000 0.485220000000000 255 0 0
0.150918000000000 0.689678000000000 0.494549000000000 255 0 0
0.152060000000000 0.672665000000000 0.483902000000000 255 0 0
0.139216000000000 0.676059000000000 0.490375000000000 255 0 0
0.120961000000000 0.672856000000000 0.495157000000000 255 0 0
0.134776000000000 0.659176000000000 0.483102000000000 255 0 0
0.117814000000000 0.653759000000000 0.486103000000000 255 0 0
0.104545000000000 0.656040000000000 0.491174000000000 255 0 0
-0.241539000000000 0.655304000000000 0.491798000000000 255 0 0
0.120964000000000 0.640824000000000 0.479485000000000 255 0 0
0.105572000000000 0.640601000000000 0.484319000000000 255 0 0
0.090876000000000 0.641420000000000 0.488942000000000 255 0 0
-0.244754000000000 0.640885000000000 0.479501000000000 255 0 0
0.106400000000000 0.625491000000000 0.478318000000000 255 0 0
0.091136000000000 0.626154000000000 0.483042000000000 255 0 0
0.078606000000000 0.628885000000000 0.487442000000000 255 0 0
0.061806000000000 0.624022000000000 0.489645000000000 255 0 0
-0.231334000000000 0.622250000000000 0.486741000000000 255 0 0
0.091629000000000 0.610340000000000 0.476986000000000 255 0 0
0.073737000000000 0.611905000000000 0.482084000000000 255 0 0
0.056981000000000 0.607376000000000 0.484058000000000 255 0 0
0.047043000000000 0.612187000000000 0.487967000000000 255 0 0
0.031018000000000 0.608185000000000 0.489322000000000 255 0 0
-0.221422000000000 0.610233000000000 0.487248000000000 255 0 0
-0.234447000000000 0.609161000000000 0.474475000000000 255 0 0
0.060775000000000 0.594543000000000 0.477497000000000 255 0 0
0.043353000000000 0.596159000000000 0.481191000000000 255 0 0
0.027459000000000 0.592327000000000 0.481855000000000 255 0 0
0.017539000000000 0.597339000000000 0.486175000000000 255 0 0
0.002868000000000 0.594700000000000 0.487173000000000 255 0 0
-0.016829000000000 0.592263000000000 0.489371000000000 255 0 0
-0.095568000000000 0.597552000000000 0.494976000000000 255 0 0
-0.111299000000000 0.596668000000000 0.492449000000000 255 0 0
-0.127409000000000 0.596669000000000 0.492095000000000 255 0 0
-0.143422000000000 0.595736000000000 0.491621000000000 255 0 0
-0.160039000000000 0.593534000000000 0.490418000000000 255 0 0
-0.173837000000000 0.589973000000000 0.488916000000000 255 0 0
-0.187738000000000 0.593573000000000 0.489864000000000 255 0 0
-0.206493000000000 0.596993000000000 0.487717000000000 255 0 0
-0.222345000000000 0.593889000000000 0.479487000000000 255 0 0
-0.022588000000000 0.578194000000000 0.480481000000000 255 0 0
-0.031946000000000 0.583436000000000 0.486174000000000 255 0 0
-0.048599000000000 0.581747000000000 0.485559000000000 255 0 0
-0.066438000000000 0.585295000000000 0.487665000000000 255 0 0
-0.082489000000000 0.589295000000000 0.489375000000000 255 0 0
-0.166511000000000 0.577505000000000 0.482805000000000 255 0 0
-0.182093000000000 0.577640000000000 0.484002000000000 255 0 0
-0.198043000000000 0.578683000000000 0.483444000000000 255 0 0
-0.213524000000000 0.578745000000000 0.479002000000000 255 0 0
-0.225944000000000 0.577777000000000 0.470856000000000 255 0 0
-0.177478000000000 0.562555000000000 0.478910000000000 255 0 0
-0.192936000000000 0.562853000000000 0.479622000000000 255 0 0
-0.208071000000000 0.562853000000000 0.477147000000000 255 0 0
-0.221476000000000 0.562555000000000 0.470641000000000 255 0 0
-0.190138000000000 0.547979000000000 0.476834000000000 255 0 0
-0.204545000000000 0.547706000000000 0.475901000000000 255 0 0
-0.218413000000000 0.546684000000000 0.470143000000000 255 0 0
-0.188916000000000 0.533316000000000 0.473769000000000 255 0 0
-0.200777000000000 0.535693000000000 0.474544000000000 255 0 0
-0.128723000000000 0.792333000000000 0.486255000000000 255 0 0
-0.142842000000000 0.788012000000000 0.477870000000000 255 0 0
-0.158205000000000 0.791873000000000 0.480439000000000 255 0 0
-0.175964000000000 0.793455000000000 0.481314000000000 255 0 0
-0.194689000000000 0.793238000000000 0.484040000000000 255 0 0
0.201294000000000 0.778044000000000 0.478164000000000 255 0 0
0.185373000000000 0.779688000000000 0.478437000000000 255 0 0
0.169240000000000 0.780213000000000 0.478325000000000 255 0 0
0.152847000000000 0.779890000000000 0.478039000000000 255 0 0
0.136194000000000 0.779443000000000 0.477890000000000 255 0 0
0.119619000000000 0.779009000000000 0.478139000000000 255 0 0
0.103681000000000 0.778640000000000 0.478412000000000 255 0 0
0.088564000000000 0.778340000000000 0.478121000000000 255 0 0
0.072805000000000 0.775992000000000 0.475267000000000 255 0 0
0.055272000000000 0.775141000000000 0.476932000000000 255 0 0
0.038540000000000 0.774986000000000 0.477900000000000 255 0 0
0.022011000000000 0.775116000000000 0.477751000000000 255 0 0
0.008507000000000 0.773803000000000 0.475023000000000 255 0 0
-0.004051000000000 0.776664000000000 0.478345000000000 255 0 0
-0.020229000000000 0.778342000000000 0.479335000000000 255 0 0
-0.036510000000000 0.778667000000000 0.479090000000000 255 0 0
-0.052232000000000 0.778822000000000 0.478879000000000 255 0 0
-0.067644000000000 0.778895000000000 0.478792000000000 255 0 0
-0.083114000000000 0.779157000000000 0.478643000000000 255 0 0
-0.098931000000000 0.779933000000000 0.478184000000000 255 0 0
-0.116314000000000 0.782965000000000 0.478703000000000 255 0 0
-0.208890000000000 0.788015000000000 0.484396000000000 255 0 0
0.265354000000000 0.771113000000000 0.457720000000000 255 0 0
0.248860000000000 0.773493000000000 0.462870000000000 255 0 0
-0.131741000000000 0.782613000000000 0.474267000000000 255 0 0
-0.219710000000000 0.776032000000000 0.482294000000000 255 0 0
0.274239000000000 0.760485000000000 0.459988000000000 255 0 0
-0.228096000000000 0.760816000000000 0.476452000000000 255 0 0
0.286268000000000 0.749216000000000 0.455181000000000 255 0 0
0.272679000000000 0.745967000000000 0.464971000000000 255 0 0
0.260235000000000 0.748685000000000 0.471054000000000 255 0 0
-0.237140000000000 0.746749000000000 0.479462000000000 255 0 0
0.261879000000000 0.734004000000000 0.469103000000000 255 0 0
-0.242859000000000 0.730824000000000 0.474583000000000 255 0 0
0.263911000000000 0.719602000000000 0.463127000000000 255 0 0
0.248586000000000 0.719776000000000 0.470978000000000 255 0 0
-0.247036000000000 0.718647000000000 0.476835000000000 255 0 0
0.236047000000000 0.707647000000000 0.470582000000000 255 0 0
0.217276000000000 0.704349000000000 0.476662000000000 255 0 0
-0.248895000000000 0.703536000000000 0.477948000000000 255 0 0
0.202333000000000 0.690091000000000 0.473459000000000 255 0 0
0.183390000000000 0.686961000000000 0.479623000000000 255 0 0
-0.249689000000000 0.687793000000000 0.478387000000000 255 0 0
0.180288000000000 0.668848000000000 0.469912000000000 255 0 0
0.167371000000000 0.671159000000000 0.476254000000000 255 0 0
-0.249642000000000 0.672000000000000 0.478213000000000 255 0 0
0.168032000000000 0.655984000000000 0.468547000000000 255 0 0
0.152550000000000 0.656865000000000 0.475071000000000 255 0 0
-0.248495000000000 0.656294000000000 0.478416000000000 255 0 0
0.168777000000000 0.640812000000000 0.462295000000000 255 0 0
0.153158000000000 0.640961000000000 0.468164000000000 255 0 0
0.137142000000000 0.641333000000000 0.474217000000000 255 0 0
0.153605000000000 0.625391000000000 0.462345000000000 255 0 0
0.137874000000000 0.625304000000000 0.467806000000000 255 0 0
0.122019000000000 0.625342000000000 0.473298000000000 255 0 0
-0.239459000000000 0.627491000000000 0.480829000000000 255 0 0
0.138917000000000 0.609809000000000 0.461623000000000 255 0 0
0.123000000000000 0.609561000000000 0.466660000000000 255 0 0
0.107418000000000 0.610219000000000 0.472081000000000 255 0 0
0.108233000000000 0.594527000000000 0.465044000000000 255 0 0
0.095021000000000 0.597192000000000 0.470238000000000 255 0 0
0.078402000000000 0.592601000000000 0.472611000000000 255 0 0
-0.230962000000000 0.590442000000000 0.469795000000000 255 0 0
0.074300000000000 0.576603000000000 0.465843000000000 255 0 0
0.064665000000000 0.581735000000000 0.470267000000000 255 0 0
0.050433000000000 0.579807000000000 0.471102000000000 255 0 0
0.033226000000000 0.580013000000000 0.472233000000000 255 0 0
0.014599000000000 0.582489000000000 0.475994000000000 255 0 0
-0.006778000000000 0.578529000000000 0.475907000000000 255 0 0
-0.062796000000000 0.576059000000000 0.478059000000000 255 0 0
-0.079574000000000 0.578069000000000 0.474860000000000 255 0 0
-0.099458000000000 0.585147000000000 0.480611000000000 255 0 0
-0.118424000000000 0.585663000000000 0.480277000000000 255 0 0
-0.132853000000000 0.585964000000000 0.482019000000000 255 0 0
-0.147939000000000 0.578612000000000 0.478731000000000 255 0 0
-0.233166000000000 0.577653000000000 0.460002000000000 255 0 0
-0.021984000000000 0.570257000000000 0.468998000000000 255 0 0
-0.037307000000000 0.572799000000000 0.475189000000000 255 0 0
-0.052903000000000 0.572331000000000 0.473754000000000 255 0 0
-0.161690000000000 0.562090000000000 0.473954000000000 255 0 0
-0.230749000000000 0.562468000000000 0.460078000000000 255 0 0
-0.161224000000000 0.545827000000000 0.466593000000000 255 0 0
-0.175413000000000 0.547135000000000 0.473935000000000 255 0 0
-0.229161000000000 0.546597000000000 0.460224000000000 255 0 0
-0.174998000000000 0.531643000000000 0.468460000000000 255 0 0
-0.213489000000000 0.531686000000000 0.470246000000000 255 0 0
-0.227551000000000 0.528671000000000 0.460457000000000 255 0 0
-0.176616000000000 0.515879000000000 0.464197000000000 255 0 0
-0.187403000000000 0.520440000000000 0.469537000000000 255 0 0
-0.202998000000000 0.519468000000000 0.469846000000000 255 0 0
-0.221126000000000 0.513305000000000 0.463539000000000 255 0 0
-0.231778000000000 0.512514000000000 0.455010000000000 255 0 0
-0.193817000000000 0.503630000000000 0.465177000000000 255 0 0
-0.212227000000000 0.501200000000000 0.463934000000000 255 0 0
-0.222376000000000 0.500166000000000 0.460624000000000 255 0 0
-0.191583000000000 0.485171000000000 0.460242000000000 255 0 0
-0.207802000000000 0.485544000000000 0.460718000000000 255 0 0
-0.224338000000000 0.487018000000000 0.455939000000000 255 0 0
-0.204714000000000 0.469201000000000 0.457857000000000 255 0 0
-0.220886000000000 0.468829000000000 0.453904000000000 255 0 0
-0.117797000000000 -0.596423000000000 0.452888000000000 255 0 0
-0.134147000000000 -0.596493000000000 0.455181000000000 255 0 0
-0.148121000000000 -0.599173000000000 0.453946000000000 255 0 0
-0.129967000000000 -0.611641000000000 0.458411000000000 255 0 0
-0.145622000000000 -0.611479000000000 0.457041000000000 255 0 0
-0.159589000000000 -0.611417000000000 0.451154000000000 255 0 0
-0.103961000000000 -0.627478000000000 0.455136000000000 255 0 0
-0.117086000000000 -0.630580000000000 0.460003000000000 255 0 0
-0.129032000000000 -0.627496000000000 0.460450000000000 255 0 0
-0.144059000000000 -0.626527000000000 0.458773000000000 255 0 0
-0.158524000000000 -0.626403000000000 0.453126000000000 255 0 0
-0.114360000000000 -0.642792000000000 0.460050000000000 255 0 0
-0.129026000000000 -0.642705000000000 0.461428000000000 255 0 0
-0.143252000000000 -0.642109000000000 0.459723000000000 255 0 0
-0.157336000000000 -0.641873000000000 0.453981000000000 255 0 0
-0.112779000000000 -0.658113000000000 0.460199000000000 255 0 0
-0.127941000000000 -0.657579000000000 0.461606000000000 255 0 0
-0.142489000000000 -0.657517000000000 0.459847000000000 255 0 0
-0.156177000000000 -0.657517000000000 0.454053000000000 255 0 0
-0.089814000000000 -0.674353000000000 0.454206000000000 255 0 0
-0.101772000000000 -0.677392000000000 0.459690000000000 255 0 0
-0.113024000000000 -0.674117000000000 0.461035000000000 255 0 0
-0.127074000000000 -0.672540000000000 0.461615000000000 255 0 0
-0.141162000000000 -0.672329000000000 0.459835000000000 255 0 0
-0.153965000000000 -0.672925000000000 0.454074000000000 255 0 0
-0.099563000000000 -0.689637000000000 0.459835000000000 255 0 0
-0.113723000000000 -0.689426000000000 0.461615000000000 255 0 0
-0.127588000000000 -0.687849000000000 0.461035000000000 255 0 0
-0.138715000000000 -0.684574000000000 0.459690000000000 255 0 0
-0.098309000000000 -0.704573000000000 0.459765000000000 255 0 0
-0.112856000000000 -0.704387000000000 0.461606000000000 255 0 0
-0.127594000000000 -0.703791000000000 0.460199000000000 255 0 0
-0.143242000000000 -0.701235000000000 0.455249000000000 255 0 0
-0.097274000000000 -0.720428000000000 0.458730000000000 255 0 0
-0.111354000000000 -0.719323000000000 0.461106000000000 255 0 0
-0.125746000000000 -0.719064000000000 0.459740000000000 255 0 0
-0.139801000000000 -0.718967000000000 0.454306000000000 255 0 0
-0.097157000000000 -0.735399000000000 0.456438000000000 255 0 0
-0.110437000000000 -0.733810000000000 0.458668000000000 255 0 0
-0.122279000000000 -0.730927000000000 0.458831000000000 255 0 0
0.232582000000000 0.778044000000000 0.462520000000000 255 0 0
0.216578000000000 0.779708000000000 0.462855000000000 255 0 0
0.200300000000000 0.780379000000000 0.462743000000000 255 0 0
0.183903000000000 0.779964000000000 0.462486000000000 255 0 0
0.167631000000000 0.778956000000000 0.462344000000000 255 0 0
0.150566000000000 0.776001000000000 0.459976000000000 255 0 0
0.131381000000000 0.774245000000000 0.461638000000000 255 0 0
0.114139000000000 0.773182000000000 0.462418000000000 255 0 0
0.097892000000000 0.772918000000000 0.463878000000000 255 0 0
-0.141221000000000 0.777176000000000 0.468699000000000 255 0 0
-0.153769000000000 0.779206000000000 0.468510000000000 255 0 0
-0.169507000000000 0.780299000000000 0.468730000000000 255 0 0
-0.188260000000000 0.777863000000000 0.467933000000000 255 0 0
0.297106000000000 0.772158000000000 0.439005000000000 255 0 0
0.281236000000000 0.773324000000000 0.445351000000000 255 0 0
0.085136000000000 0.773136000000000 0.465967000000000 255 0 0
0.076039000000000 0.769430000000000 0.461140000000000 255 0 0
0.062994000000000 0.768269000000000 0.462822000000000 255 0 0
0.045086000000000 0.763748000000000 0.461382000000000 255 0 0
0.027461000000000 0.764455000000000 0.464094000000000 255 0 0
0.012636000000000 0.764434000000000 0.464321000000000 255 0 0
-0.001725000000000 0.764232000000000 0.464307000000000 255 0 0
-0.016777000000000 0.764817000000000 0.465021000000000 255 0 0
-0.032479000000000 0.765396000000000 0.465412000000000 255 0 0
-0.048002000000000 0.765670000000000 0.465567000000000 255 0 0
-0.063414000000000 0.765583000000000 0.465639000000000 255 0 0
-0.078971000000000 0.765496000000000 0.465639000000000 255 0 0
-0.094744000000000 0.765653000000000 0.465552000000000 255 0 0
-0.111202000000000 0.766533000000000 0.465350000000000 255 0 0
-0.129717000000000 0.768292000000000 0.464548000000000 255 0 0
-0.205940000000000 0.778693000000000 0.473468000000000 255 0 0
0.305407000000000 0.765789000000000 0.438837000000000 255 0 0
0.292211000000000 0.763386000000000 0.448423000000000 255 0 0
-0.147093000000000 0.765794000000000 0.460458000000000 255 0 0
-0.162889000000000 0.766231000000000 0.459670000000000 255 0 0
-0.176844000000000 0.768010000000000 0.459560000000000 255 0 0
-0.203600000000000 0.764105000000000 0.460476000000000 255 0 0
-0.218045000000000 0.764006000000000 0.468137000000000 255 0 0
-0.227820000000000 0.749115000000000 0.465650000000000 255 0 0
0.292153000000000 0.734932000000000 0.451017000000000 255 0 0
0.276612000000000 0.734191000000000 0.460505000000000 255 0 0
-0.236489000000000 0.734266000000000 0.464804000000000 255 0 0
0.279037000000000 0.719871000000000 0.453339000000000 255 0 0
-0.241837000000000 0.719450000000000 0.463482000000000 255 0 0
0.267197000000000 0.707819000000000 0.454078000000000 255 0 0
0.250766000000000 0.703119000000000 0.460062000000000 255 0 0
-0.245810000000000 0.704017000000000 0.463172000000000 255 0 0
0.232088000000000 0.692570000000000 0.461847000000000 255 0 0
0.214912000000000 0.683435000000000 0.463496000000000 255 0 0
-0.248901000000000 0.688215000000000 0.463235000000000 255 0 0
0.211147000000000 0.668630000000000 0.455652000000000 255 0 0
0.196761000000000 0.673238000000000 0.464941000000000 255 0 0
-0.249642000000000 0.672422000000000 0.462917000000000 255 0 0
0.198885000000000 0.656145000000000 0.455384000000000 255 0 0
0.183378000000000 0.656182000000000 0.462148000000000 255 0 0
-0.249327000000000 0.656567000000000 0.463240000000000 255 0 0
0.200003000000000 0.640874000000000 0.448534000000000 255 0 0
0.184359000000000 0.640874000000000 0.455487000000000 255 0 0
-0.247771000000000 0.640911000000000 0.464870000000000 255 0 0
0.184657000000000 0.625279000000000 0.449708000000000 255 0 0
0.169100000000000 0.625367000000000 0.456414000000000 255 0 0
-0.243540000000000 0.625520000000000 0.468387000000000 255 0 0
0.169423000000000 0.609921000000000 0.449954000000000 255 0 0
0.154288000000000 0.610281000000000 0.456199000000000 255 0 0
-0.239771000000000 0.609359000000000 0.457139000000000 255 0 0
0.154974000000000 0.595255000000000 0.448763000000000 255 0 0
0.142094000000000 0.597206000000000 0.454608000000000 255 0 0
0.125579000000000 0.592237000000000 0.457605000000000 255 0 0
-0.235990000000000 0.593318000000000 0.459727000000000 255 0 0
0.120516000000000 0.576036000000000 0.450041000000000 255 0 0
0.110047000000000 0.580913000000000 0.456437000000000 255 0 0
0.091708000000000 0.578759000000000 0.461441000000000 255 0 0
-0.096607000000000 0.577505000000000 0.462635000000000 255 0 0
-0.111078000000000 0.579207000000000 0.467790000000000 255 0 0
-0.128341000000000 0.575741000000000 0.466801000000000 255 0 0
0.087106000000000 0.560738000000000 0.452683000000000 255 0 0
0.077592000000000 0.566269000000000 0.458597000000000 255 0 0
0.062150000000000 0.566260000000000 0.461506000000000 255 0 0
0.041727000000000 0.563952000000000 0.458582000000000 255 0 0
0.022289000000000 0.569249000000000 0.460987000000000 255 0 0
0.004983000000000 0.570315000000000 0.461828000000000 255 0 0
-0.011046000000000 0.568079000000000 0.460477000000000 255 0 0
-0.023526000000000 0.565815000000000 0.457499000000000 255 0 0
-0.034892000000000 0.566531000000000 0.461044000000000 255 0 0
-0.049224000000000 0.567870000000000 0.462591000000000 255 0 0
-0.066130000000000 0.571343000000000 0.463718000000000 255 0 0
-0.082480000000000 0.574478000000000 0.458625000000000 255 0 0
-0.145955000000000 0.560926000000000 0.462392000000000 255 0 0
0.072440000000000 0.550679000000000 0.451386000000000 255 0 0
0.055121000000000 0.549057000000000 0.450715000000000 255 0 0
0.041524000000000 0.547751000000000 0.442610000000000 255 0 0
-0.151796000000000 0.544459000000000 0.455360000000000 255 0 0
0.062686000000000 0.536531000000000 0.445576000000000 255 0 0
-0.162027000000000 0.528554000000000 0.458038000000000 255 0 0
0.059934000000000 0.519891000000000 0.438938000000000 255 0 0
-0.167527000000000 0.511918000000000 0.456115000000000 255 0 0
0.061296000000000 0.502103000000000 0.435559000000000 255 0 0
-0.178035000000000 0.500008000000000 0.459216000000000 255 0 0
-0.229885000000000 0.500059000000000 0.454799000000000 255 0 0
-0.177622000000000 0.484609000000000 0.454012000000000 255 0 0
-0.237598000000000 0.485267000000000 0.444017000000000 255 0 0
-0.177057000000000 0.469884000000000 0.449670000000000 255 0 0
-0.189546000000000 0.469735000000000 0.456058000000000 255 0 0
-0.235216000000000 0.468916000000000 0.444317000000000 255 0 0
-0.187210000000000 0.457503000000000 0.451503000000000 255 0 0
-0.200381000000000 0.454327000000000 0.454295000000000 255 0 0
-0.216675000000000 0.452812000000000 0.452332000000000 255 0 0
-0.233543000000000 0.450456000000000 0.443938000000000 255 0 0
-0.193056000000000 0.440948000000000 0.448358000000000 255 0 0
-0.211344000000000 0.438174000000000 0.450229000000000 255 0 0
-0.226908000000000 0.436702000000000 0.446457000000000 255 0 0
-0.238624000000000 0.434404000000000 0.439371000000000 255 0 0
-0.206639000000000 0.423399000000000 0.446358000000000 255 0 0
-0.221963000000000 0.422654000000000 0.445434000000000 255 0 0
-0.236302000000000 0.421934000000000 0.439272000000000 255 0 0
-0.204829000000000 0.408289000000000 0.442595000000000 255 0 0
-0.217175000000000 0.410691000000000 0.443775000000000 255 0 0
-0.118044000000000 -0.548655000000000 0.436607000000000 255 0 0
-0.134048000000000 -0.548643000000000 0.440135000000000 255 0 0
-0.150031000000000 -0.549351000000000 0.439572000000000 255 0 0
-0.163169000000000 -0.552316000000000 0.435946000000000 255 0 0
-0.128663000000000 -0.564808000000000 0.444853000000000 255 0 0
-0.145520000000000 -0.564523000000000 0.444578000000000 255 0 0
-0.160696000000000 -0.564610000000000 0.440683000000000 255 0 0
-0.100549000000000 -0.577128000000000 0.438926000000000 255 0 0
-0.109780000000000 -0.582950000000000 0.446584000000000 255 0 0
-0.123478000000000 -0.581031000000000 0.449681000000000 255 0 0
-0.142431000000000 -0.582692000000000 0.450038000000000 255 0 0
-0.159116000000000 -0.580043000000000 0.444737000000000 255 0 0
-0.172512000000000 -0.579534000000000 0.436636000000000 255 0 0
-0.159277000000000 -0.596133000000000 0.448499000000000 255 0 0
-0.172219000000000 -0.595153000000000 0.439425000000000 255 0 0
-0.088646000000000 -0.607283000000000 0.440356000000000 255 0 0
-0.097245000000000 -0.613567000000000 0.449428000000000 255 0 0
-0.112699000000000 -0.614186000000000 0.455662000000000 255 0 0
-0.172150000000000 -0.610821000000000 0.441590000000000 255 0 0
-0.171474000000000 -0.626316000000000 0.443305000000000 255 0 0
-0.099155000000000 -0.642270000000000 0.454496000000000 255 0 0
-0.169721000000000 -0.641873000000000 0.443986000000000 255 0 0
-0.096526000000000 -0.660624000000000 0.455249000000000 255 0 0
-0.167548000000000 -0.657517000000000 0.444203000000000 255 0 0
-0.076146000000000 -0.688929000000000 0.443975000000000 255 0 0
-0.086615000000000 -0.689103000000000 0.454032000000000 255 0 0
-0.150290000000000 -0.687613000000000 0.454206000000000 255 0 0
-0.084893000000000 -0.705020000000000 0.453470000000000 255 0 0
-0.157071000000000 -0.703269000000000 0.444497000000000 255 0 0
-0.084386000000000 -0.722962000000000 0.450955000000000 255 0 0
-0.151772000000000 -0.718481000000000 0.444646000000000 255 0 0
-0.089408000000000 -0.738333000000000 0.451046000000000 255 0 0
-0.134429000000000 -0.733102000000000 0.453730000000000 255 0 0
-0.097046000000000 -0.745852000000000 0.451627000000000 255 0 0
-0.108355000000000 -0.746525000000000 0.452917000000000 255 0 0
-0.124251000000000 -0.744245000000000 0.452052000000000 255 0 0
0.264164000000000 0.777917000000000 0.446454000000000 255 0 0
0.247865000000000 0.779708000000000 0.447149000000000 255 0 0
0.231588000000000 0.780379000000000 0.447099000000000 255 0 0
0.215137000000000 0.779857000000000 0.446789000000000 255 0 0
0.198769000000000 0.778658000000000 0.446700000000000 255 0 0
0.181430000000000 0.775522000000000 0.445141000000000 255 0 0
0.309692000000000 0.773049000000000 0.428974000000000 255 0 0
0.165501000000000 0.774637000000000 0.449172000000000 255 0 0
0.156102000000000 0.770524000000000 0.443736000000000 255 0 0
0.141771000000000 0.768457000000000 0.445816000000000 255 0 0
0.122684000000000 0.763369000000000 0.444397000000000 255 0 0
0.103731000000000 0.763207000000000 0.448315000000000 255 0 0
0.086004000000000 0.763660000000000 0.451632000000000 255 0 0
0.069363000000000 0.760333000000000 0.451139000000000 255 0 0
0.320643000000000 0.761633000000000 0.430036000000000 255 0 0
0.056312000000000 0.758710000000000 0.452815000000000 255 0 0
0.044455000000000 0.749300000000000 0.446353000000000 255 0 0
0.029291000000000 0.750679000000000 0.451038000000000 255 0 0
0.016730000000000 0.753884000000000 0.454794000000000 255 0 0
0.003295000000000 0.751080000000000 0.453528000000000 255 0 0
-0.012402000000000 0.750262000000000 0.453517000000000 255 0 0
-0.028241000000000 0.750470000000000 0.454093000000000 255 0 0
-0.043500000000000 0.751201000000000 0.454740000000000 255 0 0
-0.058192000000000 0.751263000000000 0.455133000000000 255 0 0
-0.073268000000000 0.750667000000000 0.455169000000000 255 0 0
-0.088821000000000 0.750431000000000 0.455210000000000 255 0 0
-0.104651000000000 0.750617000000000 0.455210000000000 255 0 0
-0.121031000000000 0.751043000000000 0.454900000000000 255 0 0
-0.137623000000000 0.750956000000000 0.454039000000000 255 0 0
-0.154268000000000 0.750899000000000 0.452794000000000 255 0 0
-0.172687000000000 0.751541000000000 0.451734000000000 255 0 0
-0.188796000000000 0.759847000000000 0.455788000000000 255 0 0
-0.200586000000000 0.748387000000000 0.451144000000000 255 0 0
0.333047000000000 0.749443000000000 0.425239000000000 255 0 0
0.318956000000000 0.746787000000000 0.435333000000000 255 0 0
0.304402000000000 0.751643000000000 0.443593000000000 255 0 0
0.058798000000000 0.748979000000000 0.442188000000000 255 0 0
-0.187047000000000 0.745490000000000 0.448275000000000 255 0 0
-0.215334000000000 0.749719000000000 0.456886000000000 255 0 0
0.323407000000000 0.734327000000000 0.430784000000000 255 0 0
0.308037000000000 0.734522000000000 0.439837000000000 255 0 0
0.012713000000000 0.738301000000000 0.443672000000000 255 0 0
-0.005785000000000 0.735665000000000 0.444152000000000 255 0 0
-0.022405000000000 0.734567000000000 0.444652000000000 255 0 0
-0.038860000000000 0.735408000000000 0.446090000000000 255 0 0
-0.052182000000000 0.738880000000000 0.448246000000000 255 0 0
-0.065017000000000 0.735926000000000 0.447585000000000 255 0 0
-0.080631000000000 0.734998000000000 0.447595000000000 255 0 0
-0.096354000000000 0.734787000000000 0.447678000000000 255 0 0
-0.112059000000000 0.734849000000000 0.447678000000000 255 0 0
-0.127910000000000 0.734911000000000 0.447533000000000 255 0 0
-0.143976000000000 0.735147000000000 0.446999000000000 255 0 0
-0.160132000000000 0.735217000000000 0.446057000000000 255 0 0
-0.176592000000000 0.731836000000000 0.443463000000000 255 0 0
-0.194543000000000 0.732693000000000 0.443748000000000 255 0 0
-0.210941000000000 0.733956000000000 0.447335000000000 255 0 0
-0.225585000000000 0.735135000000000 0.454947000000000 255 0 0
0.310417000000000 0.719258000000000 0.433339000000000 255 0 0
0.294512000000000 0.719142000000000 0.442924000000000 255 0 0
-0.051948000000000 0.721860000000000 0.441326000000000 255 0 0
-0.070306000000000 0.719748000000000 0.441639000000000 255 0 0
-0.086421000000000 0.719205000000000 0.441842000000000 255 0 0
-0.102148000000000 0.719143000000000 0.441883000000000 255 0 0
-0.117791000000000 0.719143000000000 0.441883000000000 255 0 0
-0.133543000000000 0.719354000000000 0.441813000000000 255 0 0
-0.149467000000000 0.720082000000000 0.441426000000000 255 0 0
-0.162952000000000 0.722029000000000 0.440867000000000 255 0 0
-0.221874000000000 0.719157000000000 0.446011000000000 255 0 0
-0.233364000000000 0.722879000000000 0.454996000000000 255 0 0
0.279584000000000 0.704694000000000 0.444483000000000 255 0 0
-0.235174000000000 0.706199000000000 0.449696000000000 255 0 0
0.263460000000000 0.693512000000000 0.446099000000000 255 0 0
0.246289000000000 0.683869000000000 0.448491000000000 255 0 0
-0.241764000000000 0.689280000000000 0.449639000000000 255 0 0
0.242405000000000 0.668774000000000 0.440366000000000 255 0 0
0.227789000000000 0.673006000000000 0.450229000000000 255 0 0
-0.243992000000000 0.673593000000000 0.448776000000000 255 0 0
0.230099000000000 0.656071000000000 0.440106000000000 255 0 0
0.214455000000000 0.656071000000000 0.447638000000000 255 0 0
-0.244172000000000 0.657155000000000 0.448122000000000 255 0 0
0.231291000000000 0.640874000000000 0.432891000000000 255 0 0
0.215647000000000 0.640874000000000 0.440495000000000 255 0 0
-0.243943000000000 0.640477000000000 0.449073000000000 255 0 0
0.215945000000000 0.625279000000000 0.434354000000000 255 0 0
0.200301000000000 0.625280000000000 0.441886000000000 255 0 0
-0.242691000000000 0.624709000000000 0.452586000000000 255 0 0
0.200537000000000 0.609747000000000 0.435020000000000 255 0 0
0.184955000000000 0.609685000000000 0.442407000000000 255 0 0
-0.237016000000000 0.608697000000000 0.441852000000000 255 0 0
0.186138000000000 0.594582000000000 0.434142000000000 255 0 0
0.170506000000000 0.594694000000000 0.441327000000000 255 0 0
-0.236063000000000 0.593880000000000 0.444996000000000 255 0 0
0.157891000000000 0.582623000000000 0.439456000000000 255 0 0
0.139092000000000 0.579564000000000 0.444498000000000 255 0 0
-0.093196000000000 0.578078000000000 0.444627000000000 255 0 0
-0.113790000000000 0.576930000000000 0.450169000000000 255 0 0
-0.235208000000000 0.578236000000000 0.446118000000000 255 0 0
0.123987000000000 0.566472000000000 0.439861000000000 255 0 0
0.105215000000000 0.563117000000000 0.445931000000000 255 0 0
0.027505000000000 0.558833000000000 0.445529000000000 255 0 0
0.011682000000000 0.564282000000000 0.447391000000000 255 0 0
-0.003666000000000 0.565673000000000 0.447869000000000 255 0 0
-0.018515000000000 0.565975000000000 0.446921000000000 255 0 0
-0.032921000000000 0.566215000000000 0.447660000000000 255 0 0
-0.044757000000000 0.566652000000000 0.451234000000000 255 0 0
-0.058159000000000 0.569810000000000 0.448995000000000 255 0 0
-0.074535000000000 0.574126000000000 0.446971000000000 255 0 0
-0.132721000000000 0.568287000000000 0.447718000000000 255 0 0
-0.234658000000000 0.562617000000000 0.446491000000000 255 0 0
0.088230000000000 0.547048000000000 0.443378000000000 255 0 0
0.031989000000000 0.550528000000000 0.430095000000000 255 0 0
-0.143512000000000 0.553455000000000 0.445345000000000 255 0 0
-0.234801000000000 0.546961000000000 0.446959000000000 255 0 0
0.074114000000000 0.533001000000000 0.442854000000000 255 0 0
0.051609000000000 0.533461000000000 0.440063000000000 255 0 0
-0.151018000000000 0.535026000000000 0.442247000000000 255 0 0
-0.235350000000000 0.531371000000000 0.448024000000000 255 0 0
0.073669000000000 0.516755000000000 0.437343000000000 255 0 0
0.048543000000000 0.517408000000000 0.429866000000000 255 0 0
-0.158505000000000 0.515870000000000 0.445964000000000 255 0 0
-0.235731000000000 0.518382000000000 0.449289000000000 255 0 0
0.073270000000000 0.501172000000000 0.433818000000000 255 0 0
0.052074000000000 0.504584000000000 0.431444000000000 255 0 0
-0.166982000000000 0.499607000000000 0.450396000000000 255 0 0
-0.239026000000000 0.502438000000000 0.442920000000000 255 0 0
-0.243854000000000 0.499521000000000 0.425719000000000 255 0 0
0.072505000000000 0.485813000000000 0.430384000000000 255 0 0
0.062738000000000 0.488761000000000 0.432876000000000 255 0 0
0.049192000000000 0.485342000000000 0.425926000000000 255 0 0
-0.167189000000000 0.484907000000000 0.443864000000000 255 0 0
-0.245211000000000 0.484808000000000 0.429511000000000 255 0 0
0.057647000000000 0.471565000000000 0.428823000000000 255 0 0
0.044335000000000 0.466055000000000 0.422109000000000 255 0 0
-0.167665000000000 0.470331000000000 0.438012000000000 255 0 0
-0.245292000000000 0.469139000000000 0.430968000000000 255 0 0
0.059010000000000 0.453731000000000 0.426932000000000 255 0 0
0.045883000000000 0.453098000000000 0.422713000000000 255 0 0
-0.177494000000000 0.455047000000000 0.443849000000000 255 0 0
-0.244940000000000 0.453520000000000 0.431853000000000 255 0 0
0.059493000000000 0.437764000000000 0.426018000000000 255 0 0
0.046543000000000 0.437702000000000 0.422589000000000 255 0 0
-0.178136000000000 0.438931000000000 0.437712000000000 255 0 0
-0.245692000000000 0.438195000000000 0.431460000000000 255 0 0
0.059419000000000 0.422145000000000 0.425774000000000 255 0 0
0.046593000000000 0.422605000000000 0.422823000000000 255 0 0
-0.191491000000000 0.422890000000000 0.441894000000000 255 0 0
-0.245536000000000 0.425114000000000 0.431943000000000 255 0 0
0.059100000000000 0.406477000000000 0.425625000000000 255 0 0
0.045766000000000 0.407255000000000 0.422396000000000 255 0 0
-0.190774000000000 0.406840000000000 0.436308000000000 255 0 0
-0.231090000000000 0.407002000000000 0.438844000000000 255 0 0
-0.248695000000000 0.406122000000000 0.426534000000000 255 0 0
0.058926000000000 0.390684000000000 0.425600000000000 255 0 0
0.044768000000000 0.391152000000000 0.421871000000000 255 0 0
-0.192235000000000 0.390803000000000 0.432397000000000 255 0 0
-0.203047000000000 0.395289000000000 0.438014000000000 255 0 0
-0.219150000000000 0.394299000000000 0.438578000000000 255 0 0
-0.239417000000000 0.387774000000000 0.431953000000000 255 0 0
-0.253339000000000 0.386290000000000 0.422644000000000 255 0 0
0.058926000000000 0.374978000000000 0.425445000000000 255 0 0
0.044441000000000 0.375102000000000 0.422062000000000 255 0 0
-0.209333000000000 0.378500000000000 0.434005000000000 255 0 0
-0.228005000000000 0.375742000000000 0.433437000000000 255 0 0
-0.240763000000000 0.371594000000000 0.429545000000000 255 0 0
-0.251191000000000 0.372901000000000 0.423690000000000 255 0 0
0.059365000000000 0.359359000000000 0.424532000000000 255 0 0
0.044710000000000 0.359210000000000 0.421896000000000 255 0 0
-0.207405000000000 0.360256000000000 0.428526000000000 255 0 0
-0.223054000000000 0.360993000000000 0.430483000000000 255 0 0
-0.235652000000000 0.362673000000000 0.429824000000000 255 0 0
0.045803000000000 0.343355000000000 0.420957000000000 255 0 0
-0.220992000000000 0.345189000000000 0.426915000000000 255 0 0
-0.238140000000000 0.346381000000000 0.425014000000000 255 0 0
0.024827000000000 -0.052931000000000 0.422086000000000 255 0 0
0.006842000000000 -0.050651000000000 0.422614000000000 255 0 0
-0.009100000000000 -0.050292000000000 0.422898000000000 255 0 0
-0.024595000000000 -0.050303000000000 0.422852000000000 255 0 0
-0.040172000000000 -0.050386000000000 0.422736000000000 255 0 0
-0.055782000000000 -0.050679000000000 0.422521000000000 255 0 0
-0.069212000000000 -0.052130000000000 0.421832000000000 255 0 0
0.052847000000000 -0.063174000000000 0.420443000000000 255 0 0
0.036644000000000 -0.064995000000000 0.424789000000000 255 0 0
0.023197000000000 -0.067624000000000 0.427784000000000 255 0 0
0.010774000000000 -0.064780000000000 0.427897000000000 255 0 0
-0.004729000000000 -0.063841000000000 0.427897000000000 255 0 0
-0.020452000000000 -0.063629000000000 0.427980000000000 255 0 0
-0.036005000000000 -0.063394000000000 0.427939000000000 255 0 0
-0.051053000000000 -0.062951000000000 0.427663000000000 255 0 0
-0.065661000000000 -0.062842000000000 0.426550000000000 255 0 0
-0.082233000000000 -0.061700000000000 0.422250000000000 255 0 0
-0.098463000000000 -0.066743000000000 0.418746000000000 255 0 0
0.028234000000000 -0.078902000000000 0.426550000000000 255 0 0
0.013625000000000 -0.078794000000000 0.427663000000000 255 0 0
-0.001423000000000 -0.078351000000000 0.427939000000000 255 0 0
-0.016975000000000 -0.078115000000000 0.427980000000000 255 0 0
-0.032698000000000 -0.077904000000000 0.427897000000000 255 0 0
-0.048201000000000 -0.076964000000000 0.427897000000000 255 0 0
-0.060624000000000 -0.074120000000000 0.427784000000000 255 0 0
-0.131231000000000 -0.504642000000000 0.423119000000000 255 0 0
-0.149229000000000 -0.503223000000000 0.424042000000000 255 0 0
-0.163591000000000 -0.505459000000000 0.421320000000000 255 0 0
-0.118921000000000 -0.517492000000000 0.424232000000000 255 0 0
-0.131442000000000 -0.521053000000000 0.430255000000000 255 0 0
-0.144714000000000 -0.518742000000000 0.429526000000000 255 0 0
-0.160692000000000 -0.518398000000000 0.426103000000000 255 0 0
-0.124854000000000 -0.533260000000000 0.433393000000000 255 0 0
-0.139987000000000 -0.533856000000000 0.435175000000000 255 0 0
-0.157930000000000 -0.535963000000000 0.432641000000000 255 0 0
-0.173946000000000 -0.533769000000000 0.422854000000000 255 0 0
-0.103403000000000 -0.548420000000000 0.428052000000000 255 0 0
-0.173514000000000 -0.549860000000000 0.428412000000000 255 0 0
-0.110847000000000 -0.566389000000000 0.440191000000000 255 0 0
-0.173299000000000 -0.564697000000000 0.433519000000000 255 0 0
-0.183116000000000 -0.565082000000000 0.421933000000000 255 0 0
-0.090027000000000 -0.579101000000000 0.429538000000000 255 0 0
-0.182276000000000 -0.579620000000000 0.425869000000000 255 0 0
-0.098969000000000 -0.595370000000000 0.444154000000000 255 0 0
-0.182106000000000 -0.594942000000000 0.428124000000000 255 0 0
-0.182034000000000 -0.610585000000000 0.429283000000000 255 0 0
-0.076508000000000 -0.625708000000000 0.430765000000000 255 0 0
-0.088485000000000 -0.623899000000000 0.444642000000000 255 0 0
-0.181382000000000 -0.626142000000000 0.430239000000000 255 0 0
-0.084645000000000 -0.641948000000000 0.444451000000000 255 0 0
-0.081274000000000 -0.658113000000000 0.444410000000000 255 0 0
-0.077775000000000 -0.673372000000000 0.444244000000000 255 0 0
-0.164941000000000 -0.673074000000000 0.444290000000000 255 0 0
-0.162081000000000 -0.688275000000000 0.444418000000000 255 0 0
-0.169668000000000 -0.687729000000000 0.431828000000000 255 0 0
-0.074722000000000 -0.704784000000000 0.442659000000000 255 0 0
-0.074279000000000 -0.719559000000000 0.437631000000000 255 0 0
-0.081888000000000 -0.735428000000000 0.441801000000000 255 0 0
-0.146584000000000 -0.732920000000000 0.444907000000000 255 0 0
-0.092137000000000 -0.748018000000000 0.443252000000000 255 0 0
-0.139099000000000 -0.744575000000000 0.444257000000000 255 0 0
-0.104448000000000 -0.754070000000000 0.443680000000000 255 0 0
-0.118621000000000 -0.754965000000000 0.443367000000000 255 0 0
-0.130955000000000 -0.752727000000000 0.441523000000000 255 0 0
0.295248000000000 0.777826000000000 0.429931000000000 255 0 0
0.279286000000000 0.779634000000000 0.431096000000000 255 0 0
0.262876000000000 0.780379000000000 0.431331000000000 255 0 0
0.246425000000000 0.779857000000000 0.431145000000000 255 0 0
0.230004000000000 0.778551000000000 0.431003000000000 255 0 0
0.212491000000000 0.774826000000000 0.429095000000000 255 0 0
0.343873000000000 0.772163000000000 0.408058000000000 255 0 0
0.327611000000000 0.773820000000000 0.414719000000000 255 0 0
0.196149000000000 0.773645000000000 0.433197000000000 255 0 0
0.185858000000000 0.769539000000000 0.428657000000000 255 0 0
0.169674000000000 0.768080000000000 0.433356000000000 255 0 0
0.151116000000000 0.760673000000000 0.429862000000000 255 0 0
0.352201000000000 0.765743000000000 0.407775000000000 255 0 0
0.338990000000000 0.763564000000000 0.417788000000000 255 0 0
0.135067000000000 0.758699000000000 0.433446000000000 255 0 0
0.122031000000000 0.748805000000000 0.427120000000000 255 0 0
0.106383000000000 0.749720000000000 0.432624000000000 255 0 0
0.089974000000000 0.749860000000000 0.436698000000000 255 0 0
0.073771000000000 0.749339000000000 0.439951000000000 255 0 0
0.060200000000000 0.734978000000000 0.432263000000000 255 0 0
0.047372000000000 0.737589000000000 0.437179000000000 255 0 0
0.339085000000000 0.734932000000000 0.420485000000000 255 0 0
0.076040000000000 0.735146000000000 0.427776000000000 255 0 0
0.031103000000000 0.733594000000000 0.438254000000000 255 0 0
0.016126000000000 0.722934000000000 0.434808000000000 255 0 0
0.002226000000000 0.721254000000000 0.436313000000000 255 0 0
-0.013842000000000 0.719718000000000 0.437234000000000 255 0 0
-0.171253000000000 0.716206000000000 0.438313000000000 255 0 0
-0.184909000000000 0.717447000000000 0.438188000000000 255 0 0
0.325832000000000 0.719689000000000 0.423214000000000 255 0 0
0.043468000000000 0.720951000000000 0.427750000000000 255 0 0
0.026130000000000 0.716630000000000 0.429907000000000 255 0 0
-0.031833000000000 0.716867000000000 0.438221000000000 255 0 0
-0.043839000000000 0.703710000000000 0.434703000000000 255 0 0
-0.059732000000000 0.704104000000000 0.436208000000000 255 0 0
-0.075851000000000 0.703710000000000 0.436803000000000 255 0 0
