ply
format ascii 1.0
element vertex 735
property double x
property double y
property double z
property uchar red
property uchar green
property uchar blue
end_header
-0.532999000000000 -0.409153000000000 -0.201919000000000 255 0 0
-0.488994000000000 -0.421937000000000 -0.197228000000000 255 0 0
-0.504644000000000 -0.421200000000000 -0.195272000000000 255 0 0
-0.517241000000000 -0.419520000000000 -0.195931000000000 255 0 0
-0.502581000000000 -0.437004000000000 -0.198839000000000 255 0 0
-0.519906000000000 -0.435692000000000 -0.200679000000000 255 0 0
-0.530877000000000 -0.172147000000000 -0.195027000000000 255 0 0
-0.412371000000000 -0.188813000000000 -0.194957000000000 255 0 0
-0.531589000000000 -0.188797000000000 -0.194026000000000 255 0 0
-0.411982000000000 -0.204333000000000 -0.194832000000000 255 0 0
-0.533119000000000 -0.205037000000000 -0.194647000000000 255 0 0
-0.412131000000000 -0.219095000000000 -0.194178000000000 255 0 0
-0.534422000000000 -0.220296000000000 -0.194738000000000 255 0 0
-0.413397000000000 -0.233750000000000 -0.195623000000000 255 0 0
-0.535312000000000 -0.234661000000000 -0.192536000000000 255 0 0
-0.414726000000000 -0.245587000000000 -0.199191000000000 255 0 0
-0.535855000000000 -0.246501000000000 -0.188785000000000 255 0 0
-0.419168000000000 -0.259211000000000 -0.195764000000000 255 0 0
-0.538249000000000 -0.263089000000000 -0.191555000000000 255 0 0
-0.542063000000000 -0.269925000000000 -0.212815000000000 255 0 0
-0.425254000000000 -0.277921000000000 -0.193201000000000 255 0 0
-0.427507000000000 -0.292628000000000 -0.199317000000000 255 0 0
-0.432360000000000 -0.309459000000000 -0.199224000000000 255 0 0
-0.439908000000000 -0.328712000000000 -0.194683000000000 255 0 0
-0.448526000000000 -0.344901000000000 -0.190797000000000 255 0 0
-0.448600000000000 -0.359361000000000 -0.201078000000000 255 0 0
-0.541244000000000 -0.364144000000000 -0.200915000000000 255 0 0
-0.459321000000000 -0.378152000000000 -0.198012000000000 255 0 0
-0.544912000000000 -0.376680000000000 -0.211292000000000 255 0 0
-0.464532000000000 -0.395486000000000 -0.200873000000000 255 0 0
-0.543274000000000 -0.392105000000000 -0.211347000000000 255 0 0
-0.475217000000000 -0.407398000000000 -0.198135000000000 255 0 0
-0.542926000000000 -0.407684000000000 -0.211742000000000 255 0 0
-0.474943000000000 -0.422884000000000 -0.204359000000000 255 0 0
-0.528844000000000 -0.423145000000000 -0.201537000000000 255 0 0
-0.542213000000000 -0.425029000000000 -0.212101000000000 255 0 0
-0.487835000000000 -0.437609000000000 -0.202577000000000 255 0 0
-0.536638000000000 -0.438695000000000 -0.207724000000000 255 0 0
-0.546478000000000 -0.441131000000000 -0.216570000000000 255 0 0
-0.488355000000000 -0.453423000000000 -0.207621000000000 255 0 0
-0.499665000000000 -0.449916000000000 -0.202748000000000 255 0 0
-0.514185000000000 -0.452827000000000 -0.203293000000000 255 0 0
-0.532238000000000 -0.455742000000000 -0.208048000000000 255 0 0
-0.543871000000000 -0.451519000000000 -0.214197000000000 255 0 0
-0.489603000000000 -0.469956000000000 -0.211748000000000 255 0 0
-0.505745000000000 -0.466683000000000 -0.206714000000000 255 0 0
-0.523993000000000 -0.469175000000000 -0.207940000000000 255 0 0
-0.536713000000000 -0.472255000000000 -0.211874000000000 255 0 0
-0.547574000000000 -0.468079000000000 -0.218588000000000 255 0 0
-0.504306000000000 -0.484652000000000 -0.210904000000000 255 0 0
-0.520010000000000 -0.483891000000000 -0.210096000000000 255 0 0
-0.532458000000000 -0.482006000000000 -0.211647000000000 255 0 0
-0.502957000000000 -0.499965000000000 -0.213983000000000 255 0 0
-0.518006000000000 -0.499460000000000 -0.212585000000000 255 0 0
-0.535284000000000 -0.498362000000000 -0.215678000000000 255 0 0
-0.514574000000000 -0.511682000000000 -0.214672000000000 255 0 0
-0.415552000000000 -0.173520000000000 -0.210250000000000 255 0 0
-0.526979000000000 -0.171701000000000 -0.211375000000000 255 0 0
-0.416055000000000 -0.192095000000000 -0.211428000000000 255 0 0
-0.529491000000000 -0.187928000000000 -0.209976000000000 255 0 0
-0.412625000000000 -0.207976000000000 -0.205781000000000 255 0 0
-0.532045000000000 -0.203994000000000 -0.209906000000000 255 0 0
-0.413228000000000 -0.219899000000000 -0.208317000000000 255 0 0
-0.533783000000000 -0.219849000000000 -0.209786000000000 255 0 0
-0.414742000000000 -0.234082000000000 -0.210394000000000 255 0 0
-0.535645000000000 -0.235670000000000 -0.208349000000000 255 0 0
-0.417732000000000 -0.248832000000000 -0.210895000000000 255 0 0
-0.537876000000000 -0.250656000000000 -0.203151000000000 255 0 0
-0.421480000000000 -0.264662000000000 -0.209964000000000 255 0 0
-0.424760000000000 -0.280616000000000 -0.210402000000000 255 0 0
-0.546121000000000 -0.286340000000000 -0.215457000000000 255 0 0
-0.426844000000000 -0.295697000000000 -0.211979000000000 255 0 0
-0.547484000000000 -0.298354000000000 -0.212025000000000 255 0 0
-0.428850000000000 -0.308174000000000 -0.214994000000000 255 0 0
-0.547906000000000 -0.313377000000000 -0.210381000000000 255 0 0
-0.433845000000000 -0.324310000000000 -0.212911000000000 255 0 0
-0.547637000000000 -0.329182000000000 -0.209943000000000 255 0 0
-0.440758000000000 -0.342792000000000 -0.205520000000000 255 0 0
-0.547178000000000 -0.345413000000000 -0.210265000000000 255 0 0
-0.442377000000000 -0.355124000000000 -0.213961000000000 255 0 0
-0.546757000000000 -0.361425000000000 -0.211100000000000 255 0 0
-0.447355000000000 -0.372072000000000 -0.215123000000000 255 0 0
-0.455020000000000 -0.391685000000000 -0.211762000000000 255 0 0
-0.463875000000000 -0.408065000000000 -0.207834000000000 255 0 0
-0.464116000000000 -0.422684000000000 -0.215820000000000 255 0 0
-0.474748000000000 -0.438276000000000 -0.211007000000000 255 0 0
-0.474688000000000 -0.455796000000000 -0.218032000000000 255 0 0
-0.479074000000000 -0.472400000000000 -0.218531000000000 255 0 0
-0.558479000000000 -0.470580000000000 -0.232483000000000 255 0 0
-0.489305000000000 -0.485417000000000 -0.215712000000000 255 0 0
-0.544090000000000 -0.485169000000000 -0.217479000000000 255 0 0
-0.557127000000000 -0.487505000000000 -0.228561000000000 255 0 0
-0.488682000000000 -0.500880000000000 -0.220651000000000 255 0 0
-0.551938000000000 -0.501732000000000 -0.223772000000000 255 0 0
-0.561595000000000 -0.503732000000000 -0.232903000000000 255 0 0
-0.489261000000000 -0.517182000000000 -0.224599000000000 255 0 0
-0.503019000000000 -0.514926000000000 -0.217977000000000 255 0 0
-0.528827000000000 -0.515298000000000 -0.216918000000000 255 0 0
-0.547044000000000 -0.519006000000000 -0.222941000000000 255 0 0
-0.560219000000000 -0.516722000000000 -0.231616000000000 255 0 0
-0.504388000000000 -0.530983000000000 -0.222423000000000 255 0 0
-0.518601000000000 -0.525876000000000 -0.218696000000000 255 0 0
-0.537413000000000 -0.534657000000000 -0.222208000000000 255 0 0
-0.552482000000000 -0.535680000000000 -0.226760000000000 255 0 0
-0.559124000000000 -0.529649000000000 -0.230240000000000 255 0 0
-0.504645000000000 -0.547546000000000 -0.226435000000000 255 0 0
-0.522588000000000 -0.545406000000000 -0.223084000000000 255 0 0
-0.539351000000000 -0.551307000000000 -0.224894000000000 255 0 0
-0.551166000000000 -0.549048000000000 -0.227604000000000 255 0 0
-0.563911000000000 -0.545860000000000 -0.234906000000000 255 0 0
-0.504290000000000 -0.563704000000000 -0.228619000000000 255 0 0
-0.519917000000000 -0.563012000000000 -0.225748000000000 255 0 0
-0.535403000000000 -0.562999000000000 -0.225620000000000 255 0 0
-0.549542000000000 -0.563604000000000 -0.228023000000000 255 0 0
-0.562797000000000 -0.563601000000000 -0.234247000000000 255 0 0
-0.519098000000000 -0.578851000000000 -0.227365000000000 255 0 0
-0.534345000000000 -0.577982000000000 -0.226871000000000 255 0 0
-0.546284000000000 -0.575275000000000 -0.228094000000000 255 0 0
-0.518142000000000 -0.593961000000000 -0.228959000000000 255 0 0
-0.533090000000000 -0.593514000000000 -0.228284000000000 255 0 0
-0.549878000000000 -0.591813000000000 -0.231439000000000 255 0 0
-0.529497000000000 -0.606086000000000 -0.229996000000000 255 0 0
-0.425535000000000 -0.175668000000000 -0.227386000000000 255 0 0
-0.519415000000000 -0.171477000000000 -0.225749000000000 255 0 0
-0.417449000000000 -0.205160000000000 -0.218748000000000 255 0 0
-0.422644000000000 -0.191791000000000 -0.226272000000000 255 0 0
-0.523194000000000 -0.187000000000000 -0.224467000000000 255 0 0
-0.525978000000000 -0.203153000000000 -0.224839000000000 255 0 0
-0.418989000000000 -0.219228000000000 -0.223081000000000 255 0 0
-0.529892000000000 -0.219253000000000 -0.225033000000000 255 0 0
-0.420994000000000 -0.234814000000000 -0.224840000000000 255 0 0
-0.532998000000000 -0.235583000000000 -0.224601000000000 255 0 0
-0.423332000000000 -0.250996000000000 -0.225347000000000 255 0 0
-0.537099000000000 -0.254097000000000 -0.222722000000000 255 0 0
-0.425207000000000 -0.267256000000000 -0.224805000000000 255 0 0
-0.540035000000000 -0.271088000000000 -0.228980000000000 255 0 0
-0.426034000000000 -0.282424000000000 -0.224825000000000 255 0 0
-0.544147000000000 -0.283964000000000 -0.227467000000000 255 0 0
-0.427686000000000 -0.296740000000000 -0.226193000000000 255 0 0
-0.547212000000000 -0.298627000000000 -0.226824000000000 255 0 0
-0.430022000000000 -0.311210000000000 -0.227278000000000 255 0 0
-0.548578000000000 -0.313526000000000 -0.225906000000000 255 0 0
-0.433916000000000 -0.323858000000000 -0.229256000000000 255 0 0
-0.549303000000000 -0.328996000000000 -0.225587000000000 255 0 0
-0.438090000000000 -0.340100000000000 -0.224033000000000 255 0 0
-0.549696000000000 -0.344702000000000 -0.225587000000000 255 0 0
-0.442021000000000 -0.357698000000000 -0.227208000000000 255 0 0
-0.549698000000000 -0.360495000000000 -0.225761000000000 255 0 0
-0.443931000000000 -0.370653000000000 -0.230776000000000 255 0 0
-0.549265000000000 -0.376052000000000 -0.225698000000000 255 0 0
-0.448064000000000 -0.386776000000000 -0.229488000000000 255 0 0
-0.548901000000000 -0.390963000000000 -0.224879000000000 255 0 0
-0.455221000000000 -0.407721000000000 -0.223796000000000 255 0 0
-0.548994000000000 -0.405763000000000 -0.224316000000000 255 0 0
-0.458634000000000 -0.421768000000000 -0.225307000000000 255 0 0
-0.548946000000000 -0.419045000000000 -0.222687000000000 255 0 0
-0.463334000000000 -0.435653000000000 -0.225384000000000 255 0 0
-0.552990000000000 -0.436478000000000 -0.228424000000000 255 0 0
-0.558919000000000 -0.439980000000000 -0.247240000000000 255 0 0
-0.463988000000000 -0.452220000000000 -0.232160000000000 255 0 0
-0.552791000000000 -0.454104000000000 -0.224067000000000 255 0 0
-0.560281000000000 -0.456983000000000 -0.241099000000000 255 0 0
-0.469827000000000 -0.466126000000000 -0.225919000000000 255 0 0
-0.474723000000000 -0.482885000000000 -0.226872000000000 255 0 0
-0.474810000000000 -0.502983000000000 -0.232775000000000 255 0 0
-0.479031000000000 -0.520095000000000 -0.233342000000000 255 0 0
-0.489574000000000 -0.532890000000000 -0.229532000000000 255 0 0
-0.489890000000000 -0.548783000000000 -0.233102000000000 255 0 0
-0.574435000000000 -0.548138000000000 -0.248235000000000 255 0 0
-0.490624000000000 -0.564573000000000 -0.235401000000000 255 0 0
-0.573537000000000 -0.562943000000000 -0.244408000000000 255 0 0
-0.490818000000000 -0.579559000000000 -0.238000000000000 255 0 0
-0.504195000000000 -0.579298000000000 -0.230858000000000 255 0 0
-0.558784000000000 -0.578661000000000 -0.233184000000000 255 0 0
-0.572981000000000 -0.581075000000000 -0.244033000000000 255 0 0
-0.503822000000000 -0.594594000000000 -0.234281000000000 255 0 0
-0.567014000000000 -0.595335000000000 -0.239441000000000 255 0 0
-0.577418000000000 -0.598245000000000 -0.249434000000000 255 0 0
-0.503564000000000 -0.609998000000000 -0.237737000000000 255 0 0
-0.517437000000000 -0.608686000000000 -0.232044000000000 255 0 0
-0.543463000000000 -0.609191000000000 -0.232572000000000 255 0 0
-0.559798000000000 -0.610607000000000 -0.238633000000000 255 0 0
-0.504458000000000 -0.625824000000000 -0.242017000000000 255 0 0
-0.515771000000000 -0.621536000000000 -0.236285000000000 255 0 0
-0.531571000000000 -0.622225000000000 -0.234489000000000 255 0 0
-0.551262000000000 -0.627868000000000 -0.239398000000000 255 0 0
-0.568487000000000 -0.627207000000000 -0.247796000000000 255 0 0
-0.520968000000000 -0.637834000000000 -0.240362000000000 255 0 0
-0.539381000000000 -0.639862000000000 -0.240352000000000 255 0 0
-0.550301000000000 -0.641352000000000 -0.242520000000000 255 0 0
-0.532179000000000 -0.651926000000000 -0.243837000000000 255 0 0
-0.431334000000000 -0.185801000000000 -0.234926000000000 255 0 0
-0.439630000000000 -0.173798000000000 -0.240745000000000 255 0 0
-0.489471000000000 -0.170031000000000 -0.246469000000000 255 0 0
-0.507923000000000 -0.171153000000000 -0.236903000000000 255 0 0
-0.441154000000000 -0.188380000000000 -0.243753000000000 255 0 0
-0.502229000000000 -0.187694000000000 -0.243604000000000 255 0 0
-0.513647000000000 -0.184034000000000 -0.234094000000000 255 0 0
-0.428059000000000 -0.201610000000000 -0.233957000000000 255 0 0
-0.514856000000000 -0.200971000000000 -0.238710000000000 255 0 0
-0.429157000000000 -0.219054000000000 -0.237132000000000 255 0 0
-0.522271000000000 -0.218201000000000 -0.238691000000000 255 0 0
-0.430637000000000 -0.235642000000000 -0.238756000000000 255 0 0
-0.525654000000000 -0.234360000000000 -0.239308000000000 255 0 0
-0.431645000000000 -0.253990000000000 -0.240857000000000 255 0 0
-0.529932000000000 -0.250695000000000 -0.239404000000000 255 0 0
-0.428197000000000 -0.270652000000000 -0.236081000000000 255 0 0
-0.534449000000000 -0.266780000000000 -0.240170000000000 255 0 0
-0.429087000000000 -0.282809000000000 -0.238615000000000 255 0 0
-0.538454000000000 -0.282651000000000 -0.241340000000000 255 0 0
-0.431274000000000 -0.297385000000000 -0.240178000000000 255 0 0
-0.541983000000000 -0.297969000000000 -0.241053000000000 255 0 0
-0.434972000000000 -0.312235000000000 -0.241237000000000 255 0 0
-0.545329000000000 -0.313203000000000 -0.240825000000000 255 0 0
-0.438635000000000 -0.327478000000000 -0.240945000000000 255 0 0
-0.547223000000000 -0.328785000000000 -0.241057000000000 255 0 0
-0.442272000000000 -0.343469000000000 -0.240736000000000 255 0 0
-0.548371000000000 -0.344578000000000 -0.241231000000000 255 0 0
-0.444147000000000 -0.359017000000000 -0.241959000000000 255 0 0
-0.549303000000000 -0.360284000000000 -0.241231000000000 255 0 0
-0.445726000000000 -0.373730000000000 -0.243182000000000 255 0 0
-0.549934000000000 -0.375965000000000 -0.241020000000000 255 0 0
-0.447337000000000 -0.386034000000000 -0.245551000000000 255 0 0
-0.550740000000000 -0.391394000000000 -0.239911000000000 255 0 0
-0.450729000000000 -0.400028000000000 -0.241410000000000 255 0 0
-0.551360000000000 -0.403635000000000 -0.236459000000000 255 0 0
-0.455717000000000 -0.419137000000000 -0.238487000000000 255 0 0
-0.553813000000000 -0.420472000000000 -0.238493000000000 255 0 0
-0.556608000000000 -0.429349000000000 -0.257591000000000 255 0 0
-0.458430000000000 -0.436653000000000 -0.242249000000000 255 0 0
-0.459283000000000 -0.449509000000000 -0.245378000000000 255 0 0
-0.463368000000000 -0.465868000000000 -0.240366000000000 255 0 0
-0.564039000000000 -0.473115000000000 -0.244503000000000 255 0 0
-0.464802000000000 -0.484484000000000 -0.242986000000000 255 0 0
-0.564364000000000 -0.485088000000000 -0.241764000000000 255 0 0
-0.464287000000000 -0.499714000000000 -0.248206000000000 255 0 0
-0.565076000000000 -0.497805000000000 -0.239823000000000 255 0 0
-0.469884000000000 -0.513811000000000 -0.241628000000000 255 0 0
-0.568895000000000 -0.514438000000000 -0.244792000000000 255 0 0
-0.574917000000000 -0.518146000000000 -0.263008000000000 255 0 0
-0.474976000000000 -0.532693000000000 -0.243267000000000 255 0 0
-0.568265000000000 -0.531685000000000 -0.239985000000000 255 0 0
-0.576012000000000 -0.534976000000000 -0.256754000000000 255 0 0
-0.480539000000000 -0.552122000000000 -0.241182000000000 255 0 0
-0.480323000000000 -0.565036000000000 -0.245035000000000 255 0 0
-0.480587000000000 -0.578991000000000 -0.249568000000000 255 0 0
-0.490594000000000 -0.594780000000000 -0.243381000000000 255 0 0
-0.490249000000000 -0.612323000000000 -0.249372000000000 255 0 0
-0.573958000000000 -0.611405000000000 -0.248116000000000 255 0 0
-0.494422000000000 -0.629185000000000 -0.250104000000000 255 0 0
-0.581521000000000 -0.626974000000000 -0.259316000000000 255 0 0
-0.504402000000000 -0.641447000000000 -0.247779000000000 255 0 0
-0.560426000000000 -0.642395000000000 -0.247674000000000 255 0 0
-0.576572000000000 -0.645140000000000 -0.259325000000000 255 0 0
-0.502356000000000 -0.654531000000000 -0.253830000000000 255 0 0
-0.517752000000000 -0.657567000000000 -0.248259000000000 255 0 0
-0.548196000000000 -0.653999000000000 -0.246842000000000 255 0 0
-0.565019000000000 -0.658457000000000 -0.255144000000000 255 0 0
-0.523111000000000 -0.674379000000000 -0.253166000000000 255 0 0
-0.535096000000000 -0.666719000000000 -0.249724000000000 255 0 0
-0.552542000000000 -0.674127000000000 -0.255368000000000 255 0 0
-0.570189000000000 -0.674706000000000 -0.263867000000000 255 0 0
-0.519723000000000 -0.687393000000000 -0.259794000000000 255 0 0
-0.536986000000000 -0.685396000000000 -0.256788000000000 255 0 0
-0.549990000000000 -0.687839000000000 -0.258965000000000 255 0 0
-0.451851000000000 -0.177333000000000 -0.247126000000000 255 0 0
-0.468053000000000 -0.176659000000000 -0.250198000000000 255 0 0
-0.441617000000000 -0.203671000000000 -0.245531000000000 255 0 0
-0.454826000000000 -0.190079000000000 -0.250082000000000 255 0 0
-0.467282000000000 -0.193454000000000 -0.253155000000000 255 0 0
-0.483892000000000 -0.192371000000000 -0.251411000000000 255 0 0
-0.455796000000000 -0.205049000000000 -0.252855000000000 255 0 0
-0.470988000000000 -0.206559000000000 -0.255741000000000 255 0 0
-0.484556000000000 -0.209500000000000 -0.256186000000000 255 0 0
-0.499554000000000 -0.206852000000000 -0.251162000000000 255 0 0
-0.442335000000000 -0.219638000000000 -0.248257000000000 255 0 0
-0.457019000000000 -0.220659000000000 -0.255483000000000 255 0 0
-0.474009000000000 -0.224001000000000 -0.259997000000000 255 0 0
-0.492110000000000 -0.221383000000000 -0.258280000000000 255 0 0
-0.502401000000000 -0.219662000000000 -0.255061000000000 255 0 0
-0.510661000000000 -0.218403000000000 -0.249371000000000 255 0 0
-0.442914000000000 -0.235915000000000 -0.250471000000000 255 0 0
-0.456955000000000 -0.236651000000000 -0.259338000000000 255 0 0
-0.503964000000000 -0.232959000000000 -0.257696000000000 255 0 0
-0.516885000000000 -0.230991000000000 -0.248788000000000 255 0 0
-0.434312000000000 -0.267612000000000 -0.247656000000000 255 0 0
-0.443634000000000 -0.251670000000000 -0.254649000000000 255 0 0
-0.516426000000000 -0.250397000000000 -0.254288000000000 255 0 0
-0.444590000000000 -0.266718000000000 -0.259491000000000 255 0 0
-0.518509000000000 -0.269407000000000 -0.259423000000000 255 0 0
-0.526462000000000 -0.263301000000000 -0.250206000000000 255 0 0
-0.436151000000000 -0.282300000000000 -0.251331000000000 255 0 0
-0.526990000000000 -0.280263000000000 -0.254708000000000 255 0 0
-0.438481000000000 -0.297410000000000 -0.253382000000000 255 0 0
-0.533217000000000 -0.297559000000000 -0.254439000000000 255 0 0
-0.443324000000000 -0.312458000000000 -0.254079000000000 255 0 0
-0.538405000000000 -0.312446000000000 -0.254322000000000 255 0 0
-0.447429000000000 -0.328214000000000 -0.254437000000000 255 0 0
-0.540364000000000 -0.327729000000000 -0.255215000000000 255 0 0
-0.449105000000000 -0.344367000000000 -0.254986000000000 255 0 0
-0.542435000000000 -0.344044000000000 -0.256159000000000 255 0 0
-0.449985000000000 -0.359998000000000 -0.256105000000000 255 0 0
-0.545054000000000 -0.360135000000000 -0.256287000000000 255 0 0
-0.450812000000000 -0.375348000000000 -0.257249000000000 255 0 0
-0.547283000000000 -0.375754000000000 -0.256320000000000 255 0 0
-0.451824000000000 -0.390682000000000 -0.256713000000000 255 0 0
-0.549051000000000 -0.391766000000000 -0.255990000000000 255 0 0
-0.453554000000000 -0.406239000000000 -0.255264000000000 255 0 0
-0.552043000000000 -0.409691000000000 -0.253529000000000 255 0 0
-0.456401000000000 -0.422031000000000 -0.255702000000000 255 0 0
-0.457767000000000 -0.437485000000000 -0.257059000000000 255 0 0
-0.560911000000000 -0.443544000000000 -0.261617000000000 255 0 0
-0.458756000000000 -0.452827000000000 -0.256929000000000 255 0 0
-0.562946000000000 -0.455679000000000 -0.258244000000000 255 0 0
-0.459716000000000 -0.468918000000000 -0.256902000000000 255 0 0
-0.565308000000000 -0.470839000000000 -0.256312000000000 255 0 0
-0.460014000000000 -0.484454000000000 -0.258596000000000 255 0 0
-0.566753000000000 -0.482906000000000 -0.253134000000000 255 0 0
-0.460103000000000 -0.496728000000000 -0.261384000000000 255 0 0
-0.569627000000000 -0.498952000000000 -0.254710000000000 255 0 0
-0.573212000000000 -0.507568000000000 -0.273235000000000 255 0 0
-0.463845000000000 -0.513072000000000 -0.256947000000000 255 0 0
-0.465587000000000 -0.530454000000000 -0.262727000000000 255 0 0
-0.471771000000000 -0.549973000000000 -0.255338000000000 255 0 0
-0.579809000000000 -0.551021000000000 -0.259929000000000 255 0 0
-0.474567000000000 -0.566193000000000 -0.255218000000000 255 0 0
-0.580144000000000 -0.562536000000000 -0.257113000000000 255 0 0
-0.474666000000000 -0.575337000000000 -0.260708000000000 255 0 0
-0.580151000000000 -0.575196000000000 -0.254633000000000 255 0 0
-0.479563000000000 -0.591931000000000 -0.257920000000000 255 0 0
-0.584171000000000 -0.592459000000000 -0.260856000000000 255 0 0
-0.590753000000000 -0.595190000000000 -0.279459000000000 255 0 0
-0.479748000000000 -0.608827000000000 -0.263952000000000 255 0 0
-0.584388000000000 -0.610821000000000 -0.259904000000000 255 0 0
-0.590815000000000 -0.610350000000000 -0.274667000000000 255 0 0
-0.485384000000000 -0.623109000000000 -0.257856000000000 255 0 0
-0.590260000000000 -0.626316000000000 -0.273395000000000 255 0 0
-0.489920000000000 -0.641389000000000 -0.260852000000000 255 0 0
-0.588592000000000 -0.642531000000000 -0.273255000000000 255 0 0
-0.495502000000000 -0.660004000000000 -0.262115000000000 255 0 0
-0.577376000000000 -0.661972000000000 -0.264666000000000 255 0 0
-0.507777000000000 -0.670995000000000 -0.257768000000000 255 0 0
-0.583495000000000 -0.674626000000000 -0.274926000000000 255 0 0
-0.506059000000000 -0.687716000000000 -0.267351000000000 255 0 0
-0.561046000000000 -0.689173000000000 -0.263826000000000 255 0 0
-0.577301000000000 -0.692168000000000 -0.275169000000000 255 0 0
-0.516379000000000 -0.699786000000000 -0.267417000000000 255 0 0
-0.530031000000000 -0.702148000000000 -0.264654000000000 255 0 0
-0.548406000000000 -0.701432000000000 -0.264776000000000 255 0 0
-0.565591000000000 -0.705153000000000 -0.271564000000000 255 0 0
-0.538942000000000 -0.717809000000000 -0.271680000000000 255 0 0
-0.555174000000000 -0.719398000000000 -0.274080000000000 255 0 0
-0.570073000000000 -0.720482000000000 -0.280770000000000 255 0 0
-0.468695000000000 -0.240143000000000 -0.264014000000000 255 0 0
-0.456735000000000 -0.251894000000000 -0.263001000000000 255 0 0
-0.484756000000000 -0.239119000000000 -0.264048000000000 255 0 0
-0.470578000000000 -0.252738000000000 -0.267890000000000 255 0 0
-0.482739000000000 -0.255276000000000 -0.268725000000000 255 0 0
-0.497064000000000 -0.252105000000000 -0.264690000000000 255 0 0
-0.446641000000000 -0.281828000000000 -0.261821000000000 255 0 0
-0.457795000000000 -0.266743000000000 -0.266698000000000 255 0 0
-0.471746000000000 -0.267227000000000 -0.270117000000000 255 0 0
-0.486465000000000 -0.267836000000000 -0.270026000000000 255 0 0
-0.503381000000000 -0.270053000000000 -0.265956000000000 255 0 0
-0.459357000000000 -0.281319000000000 -0.268886000000000 255 0 0
-0.473213000000000 -0.281617000000000 -0.271173000000000 255 0 0
-0.487450000000000 -0.283244000000000 -0.271084000000000 255 0 0
-0.499561000000000 -0.286713000000000 -0.270287000000000 255 0 0
-0.512646000000000 -0.283810000000000 -0.265415000000000 255 0 0
-0.450316000000000 -0.296516000000000 -0.263474000000000 255 0 0
-0.461891000000000 -0.293477000000000 -0.269204000000000 255 0 0
-0.473143000000000 -0.296876000000000 -0.271204000000000 255 0 0
-0.487815000000000 -0.299015000000000 -0.272499000000000 255 0 0
-0.503486000000000 -0.299633000000000 -0.271441000000000 255 0 0
-0.519903000000000 -0.300084000000000 -0.266083000000000 255 0 0
-0.457169000000000 -0.310191000000000 -0.265379000000000 255 0 0
-0.472970000000000 -0.313492000000000 -0.271613000000000 255 0 0
-0.490302000000000 -0.317151000000000 -0.275694000000000 255 0 0
-0.509063000000000 -0.314457000000000 -0.273772000000000 255 0 0
-0.519524000000000 -0.313216000000000 -0.270492000000000 255 0 0
-0.527518000000000 -0.312467000000000 -0.264859000000000 255 0 0
-0.458984000000000 -0.328636000000000 -0.265558000000000 255 0 0
-0.472663000000000 -0.330191000000000 -0.274030000000000 255 0 0
-0.519753000000000 -0.326356000000000 -0.273311000000000 255 0 0
-0.532268000000000 -0.324407000000000 -0.264391000000000 255 0 0
-0.459464000000000 -0.344876000000000 -0.267164000000000 255 0 0
-0.530011000000000 -0.341678000000000 -0.269683000000000 255 0 0
-0.459694000000000 -0.360855000000000 -0.269223000000000 255 0 0
-0.535824000000000 -0.360143000000000 -0.269839000000000 255 0 0
-0.459969000000000 -0.378868000000000 -0.271114000000000 255 0 0
-0.540404000000000 -0.375245000000000 -0.269852000000000 255 0 0
-0.456247000000000 -0.395276000000000 -0.266803000000000 255 0 0
-0.543022000000000 -0.390557000000000 -0.270576000000000 255 0 0
-0.458065000000000 -0.407778000000000 -0.268606000000000 255 0 0
-0.546247000000000 -0.407248000000000 -0.271060000000000 255 0 0
-0.459199000000000 -0.422797000000000 -0.269922000000000 255 0 0
-0.551811000000000 -0.424267000000000 -0.271543000000000 255 0 0
-0.459762000000000 -0.438267000000000 -0.270892000000000 255 0 0
-0.556532000000000 -0.440212000000000 -0.272854000000000 255 0 0
-0.460031000000000 -0.453936000000000 -0.271250000000000 255 0 0
-0.560886000000000 -0.455074000000000 -0.273235000000000 255 0 0
-0.460196000000000 -0.469555000000000 -0.271978000000000 255 0 0
-0.564515000000000 -0.470520000000000 -0.272089000000000 255 0 0
-0.460374000000000 -0.484603000000000 -0.272889000000000 255 0 0
-0.568272000000000 -0.488181000000000 -0.269284000000000 255 0 0
-0.461074000000000 -0.499787000000000 -0.273044000000000 255 0 0
-0.462171000000000 -0.515249000000000 -0.273998000000000 255 0 0
-0.577424000000000 -0.521763000000000 -0.277261000000000 255 0 0
-0.463115000000000 -0.527534000000000 -0.277053000000000 255 0 0
-0.579416000000000 -0.533836000000000 -0.273660000000000 255 0 0
-0.466592000000000 -0.541417000000000 -0.273169000000000 255 0 0
-0.581469000000000 -0.548590000000000 -0.271193000000000 255 0 0
-0.470817000000000 -0.560355000000000 -0.270170000000000 255 0 0
-0.582597000000000 -0.560355000000000 -0.268036000000000 255 0 0
-0.473271000000000 -0.577683000000000 -0.272901000000000 255 0 0
-0.585415000000000 -0.576131000000000 -0.270062000000000 255 0 0
-0.589533000000000 -0.582802000000000 -0.291034000000000 255 0 0
-0.474706000000000 -0.593418000000000 -0.274292000000000 255 0 0
-0.475002000000000 -0.606086000000000 -0.276953000000000 255 0 0
-0.478808000000000 -0.622448000000000 -0.272987000000000 255 0 0
-0.479613000000000 -0.640055000000000 -0.279670000000000 255 0 0
-0.486382000000000 -0.657239000000000 -0.274178000000000 255 0 0
-0.586634000000000 -0.658771000000000 -0.274153000000000 255 0 0
-0.495403000000000 -0.673339000000000 -0.269906000000000 255 0 0
-0.592035000000000 -0.673521000000000 -0.288654000000000 255 0 0
-0.495830000000000 -0.688155000000000 -0.279521000000000 255 0 0
-0.589291000000000 -0.689550000000000 -0.288927000000000 255 0 0
-0.506488000000000 -0.702633000000000 -0.277280000000000 255 0 0
-0.577312000000000 -0.708501000000000 -0.280491000000000 255 0 0
-0.521802000000000 -0.715733000000000 -0.276019000000000 255 0 0
-0.582133000000000 -0.719911000000000 -0.289914000000000 255 0 0
-0.532527000000000 -0.729690000000000 -0.280625000000000 255 0 0
-0.545577000000000 -0.733014000000000 -0.280944000000000 255 0 0
-0.560770000000000 -0.734241000000000 -0.284495000000000 255 0 0
-0.484428000000000 -0.333917000000000 -0.279049000000000 255 0 0
-0.472182000000000 -0.345819000000000 -0.276679000000000 255 0 0
-0.500546000000000 -0.332745000000000 -0.279630000000000 255 0 0
-0.486149000000000 -0.346663000000000 -0.282582000000000 255 0 0
-0.498308000000000 -0.349065000000000 -0.284108000000000 255 0 0
-0.512372000000000 -0.345406000000000 -0.280150000000000 255 0 0
-0.472770000000000 -0.361264000000000 -0.279278000000000 255 0 0
-0.487061000000000 -0.361451000000000 -0.284995000000000 255 0 0
-0.502226000000000 -0.361720000000000 -0.285697000000000 255 0 0
-0.519634000000000 -0.363082000000000 -0.281226000000000 255 0 0
-0.463768000000000 -0.392825000000000 -0.276978000000000 255 0 0
-0.473999000000000 -0.376797000000000 -0.282435000000000 255 0 0
-0.488749000000000 -0.376945000000000 -0.287433000000000 255 0 0
-0.504493000000000 -0.377786000000000 -0.288209000000000 255 0 0
-0.517652000000000 -0.380110000000000 -0.286803000000000 255 0 0
-0.529481000000000 -0.376234000000000 -0.280250000000000 255 0 0
-0.475241000000000 -0.392440000000000 -0.285585000000000 255 0 0
-0.490445000000000 -0.395094000000000 -0.291322000000000 255 0 0
-0.508759000000000 -0.393430000000000 -0.291820000000000 255 0 0
-0.524096000000000 -0.391844000000000 -0.287668000000000 255 0 0
-0.535345000000000 -0.387761000000000 -0.279645000000000 255 0 0
-0.465006000000000 -0.407662000000000 -0.279855000000000 255 0 0
-0.474935000000000 -0.408407000000000 -0.288440000000000 255 0 0
-0.534594000000000 -0.404754000000000 -0.284821000000000 255 0 0
-0.465320000000000 -0.423095000000000 -0.281537000000000 255 0 0
-0.474405000000000 -0.423691000000000 -0.291290000000000 255 0 0
-0.541812000000000 -0.422709000000000 -0.285230000000000 255 0 0
-0.465345000000000 -0.438590000000000 -0.283267000000000 255 0 0
-0.548894000000000 -0.438110000000000 -0.285700000000000 255 0 0
-0.465432000000000 -0.454147000000000 -0.284614000000000 255 0 0
-0.554515000000000 -0.453327000000000 -0.286720000000000 255 0 0
-0.465432000000000 -0.469704000000000 -0.285425000000000 255 0 0
-0.558797000000000 -0.469397000000000 -0.287479000000000 255 0 0
-0.465556000000000 -0.485323000000000 -0.286443000000000 255 0 0
-0.564256000000000 -0.485948000000000 -0.287248000000000 255 0 0
-0.465657000000000 -0.501352000000000 -0.287414000000000 255 0 0
-0.569522000000000 -0.502697000000000 -0.287722000000000 255 0 0
-0.465519000000000 -0.516838000000000 -0.288111000000000 255 0 0
-0.574653000000000 -0.518667000000000 -0.288990000000000 255 0 0
-0.466487000000000 -0.531253000000000 -0.287881000000000 255 0 0
-0.578947000000000 -0.533566000000000 -0.288845000000000 255 0 0
-0.468982000000000 -0.546491000000000 -0.287333000000000 255 0 0
-0.582030000000000 -0.548845000000000 -0.286763000000000 255 0 0
-0.471823000000000 -0.562792000000000 -0.287565000000000 255 0 0
-0.584956000000000 -0.563786000000000 -0.281499000000000 255 0 0
-0.473067000000000 -0.578851000000000 -0.288382000000000 255 0 0
-0.473493000000000 -0.594259000000000 -0.289015000000000 255 0 0
-0.593842000000000 -0.599217000000000 -0.293676000000000 255 0 0
-0.473945000000000 -0.609468000000000 -0.288804000000000 255 0 0
-0.594937000000000 -0.611231000000000 -0.290244000000000 255 0 0
-0.474648000000000 -0.624752000000000 -0.289789000000000 255 0 0
-0.595127000000000 -0.626254000000000 -0.288601000000000 255 0 0
-0.475100000000000 -0.637214000000000 -0.293740000000000 255 0 0
-0.594651000000000 -0.641935000000000 -0.288162000000000 255 0 0
-0.479234000000000 -0.653052000000000 -0.292366000000000 255 0 0
-0.593778000000000 -0.657728000000000 -0.288336000000000 255 0 0
-0.486827000000000 -0.673659000000000 -0.286765000000000 255 0 0
-0.490467000000000 -0.687634000000000 -0.289494000000000 255 0 0
-0.496655000000000 -0.700886000000000 -0.292713000000000 255 0 0
-0.586382000000000 -0.705467000000000 -0.289478000000000 255 0 0
-0.509370000000000 -0.718310000000000 -0.290130000000000 255 0 0
-0.589585000000000 -0.719104000000000 -0.302204000000000 255 0 0
-0.522493000000000 -0.732579000000000 -0.289945000000000 255 0 0
-0.574477000000000 -0.733361000000000 -0.291580000000000 255 0 0
-0.536503000000000 -0.742119000000000 -0.290928000000000 255 0 0
-0.551184000000000 -0.746195000000000 -0.292594000000000 255 0 0
-0.565728000000000 -0.745847000000000 -0.296896000000000 255 0 0
-0.484568000000000 -0.411521000000000 -0.293770000000000 255 0 0
-0.497999000000000 -0.409099000000000 -0.296159000000000 255 0 0
-0.516145000000000 -0.410304000000000 -0.294921000000000 255 0 0
-0.474963000000000 -0.438677000000000 -0.293074000000000 255 0 0
-0.486796000000000 -0.423902000000000 -0.297146000000000 255 0 0
-0.501517000000000 -0.424370000000000 -0.300118000000000 255 0 0
-0.514532000000000 -0.427682000000000 -0.301014000000000 255 0 0
-0.528203000000000 -0.424014000000000 -0.295635000000000 255 0 0
-0.488058000000000 -0.438888000000000 -0.300163000000000 255 0 0
-0.503044000000000 -0.440100000000000 -0.303547000000000 255 0 0
-0.520399000000000 -0.442752000000000 -0.303924000000000 255 0 0
-0.537600000000000 -0.438598000000000 -0.296260000000000 255 0 0
-0.475282000000000 -0.454147000000000 -0.295116000000000 255 0 0
-0.488646000000000 -0.454503000000000 -0.302555000000000 255 0 0
-0.503773000000000 -0.456179000000000 -0.307615000000000 255 0 0
-0.533991000000000 -0.455354000000000 -0.304830000000000 255 0 0
-0.544960000000000 -0.450376000000000 -0.295800000000000 255 0 0
-0.475282000000000 -0.469853000000000 -0.296699000000000 255 0 0
-0.488584000000000 -0.470353000000000 -0.305804000000000 255 0 0
-0.547294000000000 -0.467350000000000 -0.301304000000000 255 0 0
-0.475216000000000 -0.486006000000000 -0.298880000000000 255 0 0
-0.555566000000000 -0.484916000000000 -0.301927000000000 255 0 0
-0.474868000000000 -0.504218000000000 -0.302203000000000 255 0 0
-0.562163000000000 -0.501223000000000 -0.302420000000000 255 0 0
-0.469820000000000 -0.520571000000000 -0.298468000000000 255 0 0
-0.568760000000000 -0.517074000000000 -0.303006000000000 255 0 0
-0.471888000000000 -0.532759000000000 -0.300912000000000 255 0 0
-0.574229000000000 -0.532511000000000 -0.303426000000000 255 0 0
-0.473897000000000 -0.547828000000000 -0.302147000000000 255 0 0
-0.579336000000000 -0.548510000000000 -0.303081000000000 255 0 0
-0.474816000000000 -0.563716000000000 -0.303144000000000 255 0 0
-0.584510000000000 -0.567123000000000 -0.301239000000000 255 0 0
-0.474930000000000 -0.579869000000000 -0.303949000000000 255 0 0
-0.588784000000000 -0.584218000000000 -0.307407000000000 255 0 0
-0.474094000000000 -0.595898000000000 -0.303508000000000 255 0 0
-0.592908000000000 -0.596903000000000 -0.305686000000000 255 0 0
-0.473514000000000 -0.611032000000000 -0.303210000000000 255 0 0
-0.595115000000000 -0.611504000000000 -0.305044000000000 255 0 0
-0.473897000000000 -0.625422000000000 -0.304663000000000 255 0 0
-0.596162000000000 -0.626403000000000 -0.304125000000000 255 0 0
-0.475376000000000 -0.639741000000000 -0.305938000000000 255 0 0
-0.596451000000000 -0.641873000000000 -0.303806000000000 255 0 0
-0.477360000000000 -0.651790000000000 -0.308167000000000 255 0 0
-0.596451000000000 -0.657517000000000 -0.303806000000000 255 0 0
-0.481802000000000 -0.665791000000000 -0.304398000000000 255 0 0
-0.596162000000000 -0.673161000000000 -0.303806000000000 255 0 0
-0.487683000000000 -0.684764000000000 -0.302778000000000 255 0 0
-0.595303000000000 -0.688780000000000 -0.303719000000000 255 0 0
-0.493018000000000 -0.701395000000000 -0.310768000000000 255 0 0
-0.593403000000000 -0.704337000000000 -0.303367000000000 255 0 0
-0.501436000000000 -0.717548000000000 -0.306244000000000 255 0 0
-0.514239000000000 -0.733444000000000 -0.304782000000000 255 0 0
-0.583929000000000 -0.730413000000000 -0.299959000000000 255 0 0
-0.527919000000000 -0.746081000000000 -0.304249000000000 255 0 0
-0.577964000000000 -0.741696000000000 -0.304323000000000 255 0 0
-0.542624000000000 -0.753018000000000 -0.304776000000000 255 0 0
-0.557579000000000 -0.754423000000000 -0.306330000000000 255 0 0
-0.569587000000000 -0.751202000000000 -0.308730000000000 255 0 0
-0.503102000000000 -0.472133000000000 -0.312041000000000 255 0 0
-0.518522000000000 -0.461906000000000 -0.310399000000000 255 0 0
-0.488575000000000 -0.486386000000000 -0.309516000000000 255 0 0
-0.515686000000000 -0.476043000000000 -0.315879000000000 255 0 0
-0.531136000000000 -0.473956000000000 -0.313043000000000 255 0 0
-0.503570000000000 -0.487413000000000 -0.317029000000000 255 0 0
-0.520646000000000 -0.489919000000000 -0.320330000000000 255 0 0
-0.533485000000000 -0.486762000000000 -0.318185000000000 255 0 0
-0.543089000000000 -0.485385000000000 -0.312794000000000 255 0 0
-0.478576000000000 -0.517914000000000 -0.309394000000000 255 0 0
-0.489347000000000 -0.502092000000000 -0.314634000000000 255 0 0
-0.504186000000000 -0.503048000000000 -0.322432000000000 255 0 0
-0.535219000000000 -0.500271000000000 -0.322636000000000 255 0 0
-0.551352000000000 -0.500697000000000 -0.314455000000000 255 0 0
-0.490293000000000 -0.517372000000000 -0.320202000000000 255 0 0
-0.558595000000000 -0.516424000000000 -0.316071000000000 255 0 0
-0.479932000000000 -0.532602000000000 -0.313400000000000 255 0 0
-0.566053000000000 -0.531534000000000 -0.316756000000000 255 0 0
-0.480765000000000 -0.548072000000000 -0.315964000000000 255 0 0
-0.571506000000000 -0.546995000000000 -0.317709000000000 255 0 0
-0.480869000000000 -0.564225000000000 -0.317855000000000 255 0 0
-0.576892000000000 -0.563760000000000 -0.318325000000000 255 0 0
-0.479880000000000 -0.582512000000000 -0.320020000000000 255 0 0
-0.583425000000000 -0.580493000000000 -0.319048000000000 255 0 0
-0.475439000000000 -0.599173000000000 -0.315033000000000 255 0 0
-0.587957000000000 -0.595910000000000 -0.319624000000000 255 0 0
-0.475511000000000 -0.611330000000000 -0.317356000000000 255 0 0
-0.591799000000000 -0.610759000000000 -0.319367000000000 255 0 0
-0.476130000000000 -0.625907000000000 -0.318904000000000 255 0 0
-0.593865000000000 -0.626105000000000 -0.319363000000000 255 0 0
-0.478263000000000 -0.640636000000000 -0.320079000000000 255 0 0
-0.594651000000000 -0.641811000000000 -0.319450000000000 255 0 0
-0.481419000000000 -0.655435000000000 -0.320023000000000 255 0 0
-0.595582000000000 -0.657517000000000 -0.319450000000000 255 0 0
-0.484957000000000 -0.671266000000000 -0.319483000000000 255 0 0
-0.596162000000000 -0.673161000000000 -0.319450000000000 255 0 0
-0.489387000000000 -0.686963000000000 -0.320878000000000 255 0 0
-0.596451000000000 -0.688631000000000 -0.319131000000000 255 0 0
-0.492436000000000 -0.699110000000000 -0.324491000000000 255 0 0
-0.595795000000000 -0.703617000000000 -0.318155000000000 255 0 0
-0.498336000000000 -0.712561000000000 -0.322161000000000 255 0 0
-0.592932000000000 -0.718635000000000 -0.316701000000000 255 0 0
-0.508919000000000 -0.730419000000000 -0.323150000000000 255 0 0
-0.586877000000000 -0.732583000000000 -0.312314000000000 255 0 0
-0.521732000000000 -0.745744000000000 -0.319297000000000 255 0 0
-0.578127000000000 -0.745358000000000 -0.318829000000000 255 0 0
-0.535755000000000 -0.754520000000000 -0.318680000000000 255 0 0
-0.550646000000000 -0.757601000000000 -0.319657000000000 255 0 0
-0.565501000000000 -0.754347000000000 -0.320576000000000 255 0 0
-0.503561000000000 -0.518804000000000 -0.327552000000000 255 0 0
-0.518315000000000 -0.508109000000000 -0.326955000000000 255 0 0
-0.529355000000000 -0.518889000000000 -0.330846000000000 255 0 0
-0.490742000000000 -0.532747000000000 -0.324138000000000 255 0 0
-0.515131000000000 -0.522423000000000 -0.332328000000000 255 0 0
-0.545218000000000 -0.516734000000000 -0.325331000000000 255 0 0
-0.503690000000000 -0.534091000000000 -0.332119000000000 255 0 0
-0.520098000000000 -0.536934000000000 -0.337067000000000 255 0 0
-0.539160000000000 -0.533626000000000 -0.334631000000000 255 0 0
-0.554547000000000 -0.531720000000000 -0.327144000000000 255 0 0
-0.490835000000000 -0.548432000000000 -0.327471000000000 255 0 0
-0.503769000000000 -0.549553000000000 -0.336636000000000 255 0 0
-0.550291000000000 -0.548185000000000 -0.336119000000000 255 0 0
-0.561979000000000 -0.543991000000000 -0.327063000000000 255 0 0
-0.490607000000000 -0.564461000000000 -0.330813000000000 255 0 0
-0.564298000000000 -0.561081000000000 -0.332419000000000 255 0 0
-0.480995000000000 -0.596133000000000 -0.327442000000000 255 0 0
-0.490632000000000 -0.580042000000000 -0.335556000000000 255 0 0
-0.572715000000000 -0.578929000000000 -0.332608000000000 255 0 0
-0.579694000000000 -0.594879000000000 -0.332810000000000 255 0 0
-0.481562000000000 -0.610821000000000 -0.331144000000000 255 0 0
-0.585262000000000 -0.609840000000000 -0.332777000000000 255 0 0
-0.482886000000000 -0.626142000000000 -0.332936000000000 255 0 0
-0.587071000000000 -0.625037000000000 -0.333460000000000 255 0 0
-0.484480000000000 -0.641555000000000 -0.333964000000000 255 0 0
-0.588464000000000 -0.641277000000000 -0.334378000000000 255 0 0
-0.487532000000000 -0.657078000000000 -0.334322000000000 255 0 0
-0.590078000000000 -0.657517000000000 -0.334556000000000 255 0 0
-0.490294000000000 -0.672718000000000 -0.334709000000000 255 0 0
-0.592095000000000 -0.673223000000000 -0.334536000000000 255 0 0
-0.493587000000000 -0.687729000000000 -0.335467000000000 255 0 0
-0.593772000000000 -0.688718000000000 -0.334066000000000 255 0 0
-0.498056000000000 -0.702380000000000 -0.335818000000000 255 0 0
-0.594274000000000 -0.703679000000000 -0.332495000000000 255 0 0
-0.503869000000000 -0.717591000000000 -0.336596000000000 255 0 0
-0.593499000000000 -0.716000000000000 -0.328977000000000 255 0 0
-0.512448000000000 -0.731214000000000 -0.340524000000000 255 0 0
-0.586338000000000 -0.731560000000000 -0.329633000000000 255 0 0
-0.520215000000000 -0.742805000000000 -0.334491000000000 255 0 0
-0.573894000000000 -0.746005000000000 -0.335476000000000 255 0 0
-0.530399000000000 -0.751428000000000 -0.330619000000000 255 0 0
-0.543205000000000 -0.754468000000000 -0.333290000000000 255 0 0
-0.558951000000000 -0.753101000000000 -0.334593000000000 255 0 0
-0.515499000000000 -0.553148000000000 -0.341941000000000 255 0 0
-0.503429000000000 -0.564833000000000 -0.340485000000000 255 0 0
-0.532010000000000 -0.552666000000000 -0.342279000000000 255 0 0
-0.517691000000000 -0.565933000000000 -0.346234000000000 255 0 0
-0.530779000000000 -0.569283000000000 -0.348175000000000 255 0 0
-0.546766000000000 -0.567222000000000 -0.344427000000000 255 0 0
-0.491102000000000 -0.595153000000000 -0.339767000000000 255 0 0
-0.503884000000000 -0.579831000000000 -0.344825000000000 255 0 0
-0.518845000000000 -0.581056000000000 -0.349946000000000 255 0 0
-0.536227000000000 -0.583637000000000 -0.351839000000000 255 0 0
-0.549222000000000 -0.580519000000000 -0.348952000000000 255 0 0
-0.559294000000000 -0.579178000000000 -0.343477000000000 255 0 0
-0.504507000000000 -0.595297000000000 -0.348762000000000 255 0 0
-0.519468000000000 -0.596849000000000 -0.354412000000000 255 0 0
-0.550783000000000 -0.594188000000000 -0.352344000000000 255 0 0
-0.567689000000000 -0.594535000000000 -0.343975000000000 255 0 0
-0.491578000000000 -0.610585000000000 -0.342917000000000 255 0 0
-0.504879000000000 -0.611024000000000 -0.352322000000000 255 0 0
-0.559912000000000 -0.610833000000000 -0.353269000000000 255 0 0
-0.574096000000000 -0.609753000000000 -0.343988000000000 255 0 0
-0.492881000000000 -0.626229000000000 -0.345306000000000 255 0 0
-0.568099000000000 -0.625633000000000 -0.352580000000000 255 0 0
-0.579435000000000 -0.622072000000000 -0.342996000000000 255 0 0
-0.494547000000000 -0.641873000000000 -0.346972000000000 255 0 0
-0.576608000000000 -0.638946000000000 -0.348003000000000 255 0 0
-0.496068000000000 -0.657517000000000 -0.347624000000000 255 0 0
-0.579481000000000 -0.657517000000000 -0.348065000000000 255 0 0
-0.498458000000000 -0.673074000000000 -0.347928000000000 255 0 0
-0.583180000000000 -0.673757000000000 -0.348048000000000 255 0 0
-0.501100000000000 -0.688275000000000 -0.348056000000000 255 0 0
-0.586276000000000 -0.689016000000000 -0.347593000000000 255 0 0
-0.506578000000000 -0.703265000000000 -0.348574000000000 255 0 0
-0.588168000000000 -0.704250000000000 -0.345983000000000 255 0 0
-0.512547000000000 -0.717911000000000 -0.349647000000000 255 0 0
-0.588343000000000 -0.719005000000000 -0.341022000000000 255 0 0
-0.517681000000000 -0.729148000000000 -0.350911000000000 255 0 0
-0.578480000000000 -0.734790000000000 -0.345582000000000 255 0 0
-0.520731000000000 -0.738016000000000 -0.345895000000000 255 0 0
-0.533005000000000 -0.745296000000000 -0.344515000000000 255 0 0
-0.550445000000000 -0.746250000000000 -0.346994000000000 255 0 0
-0.567093000000000 -0.743027000000000 -0.347234000000000 255 0 0
-0.574139000000000 -0.742959000000000 -0.344058000000000 255 0 0
-0.518779000000000 -0.612530000000000 -0.358418000000000 255 0 0
-0.533740000000000 -0.601898000000000 -0.357385000000000 255 0 0
-0.505237000000000 -0.626548000000000 -0.355157000000000 255 0 0
-0.530119000000000 -0.615701000000000 -0.361590000000000 255 0 0
-0.543828000000000 -0.612637000000000 -0.359226000000000 255 0 0
-0.518872000000000 -0.627305000000000 -0.361449000000000 255 0 0
-0.533227000000000 -0.627839000000000 -0.363167000000000 255 0 0
-0.550218000000000 -0.629429000000000 -0.360503000000000 255 0 0
-0.506193000000000 -0.641960000000000 -0.356967000000000 255 0 0
-0.519832000000000 -0.642258000000000 -0.362803000000000 255 0 0
-0.534206000000000 -0.643152000000000 -0.364467000000000 255 0 0
-0.546150000000000 -0.646030000000000 -0.363800000000000 255 0 0
-0.559766000000000 -0.642469000000000 -0.358826000000000 255 0 0
-0.507222000000000 -0.657517000000000 -0.357619000000000 255 0 0
-0.520668000000000 -0.657666000000000 -0.363362000000000 255 0 0
-0.534620000000000 -0.658175000000000 -0.365067000000000 255 0 0
-0.549090000000000 -0.658262000000000 -0.363660000000000 255 0 0
-0.564739000000000 -0.657753000000000 -0.358081000000000 255 0 0
-0.509216000000000 -0.672925000000000 -0.357712000000000 255 0 0
-0.521933000000000 -0.672416000000000 -0.363473000000000 255 0 0
-0.535814000000000 -0.672565000000000 -0.365087000000000 255 0 0
-0.550613000000000 -0.673608000000000 -0.363713000000000 255 0 0
-0.567209000000000 -0.676268000000000 -0.358887000000000 255 0 0
-0.512891000000000 -0.687613000000000 -0.357845000000000 255 0 0
-0.524467000000000 -0.684574000000000 -0.363328000000000 255 0 0
-0.535743000000000 -0.687824000000000 -0.364405000000000 255 0 0
-0.550220000000000 -0.689786000000000 -0.364405000000000 255 0 0
-0.561906000000000 -0.693036000000000 -0.363328000000000 255 0 0
-0.574448000000000 -0.689997000000000 -0.357772000000000 255 0 0
-0.520138000000000 -0.701086000000000 -0.359098000000000 255 0 0
-0.535664000000000 -0.703940000000000 -0.363511000000000 255 0 0
-0.550245000000000 -0.705218000000000 -0.364580000000000 255 0 0
-0.564589000000000 -0.705194000000000 -0.362720000000000 255 0 0
-0.577972000000000 -0.704573000000000 -0.356495000000000 255 0 0
-0.523732000000000 -0.718253000000000 -0.357862000000000 255 0 0
-0.537812000000000 -0.719621000000000 -0.361752000000000 255 0 0
-0.553067000000000 -0.719969000000000 -0.362424000000000 255 0 0
-0.567530000000000 -0.719348000000000 -0.360139000000000 255 0 0
-0.579570000000000 -0.719337000000000 -0.352845000000000 255 0 0
-0.528055000000000 -0.732365000000000 -0.354382000000000 255 0 0
-0.542646000000000 -0.734059000000000 -0.356344000000000 255 0 0
-0.558424000000000 -0.733491000000000 -0.356731000000000 255 0 0
