ply
format ascii 1.0
element vertex 491
property double x
property double y
property double z
property uchar red
property uchar green
property uchar blue
end_header
0.041524000000000 0.547751000000000 0.442610000000000 255 0 0
0.062686000000000 0.536531000000000 0.445576000000000 255 0 0
0.059934000000000 0.519891000000000 0.438938000000000 255 0 0
0.061296000000000 0.502103000000000 0.435559000000000 255 0 0
0.031989000000000 0.550528000000000 0.430095000000000 255 0 0
0.074114000000000 0.533001000000000 0.442854000000000 255 0 0
0.051609000000000 0.533461000000000 0.440063000000000 255 0 0
0.073669000000000 0.516755000000000 0.437343000000000 255 0 0
0.048543000000000 0.517408000000000 0.429866000000000 255 0 0
0.073270000000000 0.501172000000000 0.433818000000000 255 0 0
0.052074000000000 0.504584000000000 0.431444000000000 255 0 0
0.072505000000000 0.485813000000000 0.430384000000000 255 0 0
0.062738000000000 0.488761000000000 0.432876000000000 255 0 0
0.049192000000000 0.485342000000000 0.425926000000000 255 0 0
0.057647000000000 0.471565000000000 0.428823000000000 255 0 0
0.044335000000000 0.466055000000000 0.422109000000000 255 0 0
0.059010000000000 0.453731000000000 0.426932000000000 255 0 0
0.045883000000000 0.453098000000000 0.422713000000000 255 0 0
0.059493000000000 0.437764000000000 0.426018000000000 255 0 0
0.046543000000000 0.437702000000000 0.422589000000000 255 0 0
0.059419000000000 0.422145000000000 0.425774000000000 255 0 0
0.046593000000000 0.422605000000000 0.422823000000000 255 0 0
0.059100000000000 0.406477000000000 0.425625000000000 255 0 0
0.045766000000000 0.407255000000000 0.422396000000000 255 0 0
0.058926000000000 0.390684000000000 0.425600000000000 255 0 0
0.044768000000000 0.391152000000000 0.421871000000000 255 0 0
0.058926000000000 0.374978000000000 0.425445000000000 255 0 0
0.044441000000000 0.375102000000000 0.422062000000000 255 0 0
0.059365000000000 0.359359000000000 0.424532000000000 255 0 0
0.044710000000000 0.359210000000000 0.421896000000000 255 0 0
0.045803000000000 0.343355000000000 0.420957000000000 255 0 0
0.086200000000000 0.531044000000000 0.435324000000000 255 0 0
0.042588000000000 0.533605000000000 0.426861000000000 255 0 0
0.083701000000000 0.515756000000000 0.429529000000000 255 0 0
0.082225000000000 0.500663000000000 0.425443000000000 255 0 0
0.081333000000000 0.485888000000000 0.421314000000000 255 0 0
0.041791000000000 0.483352000000000 0.410635000000000 255 0 0
0.071848000000000 0.470083000000000 0.425959000000000 255 0 0
0.039155000000000 0.468183000000000 0.412891000000000 255 0 0
0.071798000000000 0.453892000000000 0.423229000000000 255 0 0
0.037558000000000 0.452639000000000 0.412888000000000 255 0 0
0.071736000000000 0.437615000000000 0.422320000000000 255 0 0
0.037084000000000 0.437404000000000 0.413130000000000 255 0 0
0.071860000000000 0.421698000000000 0.422149000000000 255 0 0
0.036641000000000 0.422137000000000 0.413847000000000 255 0 0
0.072129000000000 0.406030000000000 0.422297000000000 255 0 0
0.036949000000000 0.409707000000000 0.415827000000000 255 0 0
0.072253000000000 0.390535000000000 0.422200000000000 255 0 0
0.032435000000000 0.392796000000000 0.411105000000000 255 0 0
0.072253000000000 0.374978000000000 0.421462000000000 255 0 0
0.031746000000000 0.375334000000000 0.412426000000000 255 0 0
0.072613000000000 0.359719000000000 0.419239000000000 255 0 0
0.031249000000000 0.359334000000000 0.412853000000000 255 0 0
0.060673000000000 0.344460000000000 0.422202000000000 255 0 0
0.031640000000000 0.343119000000000 0.412663000000000 255 0 0
0.063017000000000 0.332214000000000 0.418559000000000 255 0 0
0.049573000000000 0.328527000000000 0.419326000000000 255 0 0
0.032708000000000 0.325177000000000 0.412278000000000 255 0 0
0.056935000000000 0.314917000000000 0.415599000000000 255 0 0
0.039203000000000 0.312007000000000 0.414611000000000 255 0 0
0.027240000000000 0.309059000000000 0.408403000000000 255 0 0
0.057313000000000 0.296138000000000 0.412689000000000 255 0 0
0.042633000000000 0.297065000000000 0.413849000000000 255 0 0
0.028493000000000 0.296765000000000 0.409018000000000 255 0 0
0.043746000000000 0.281413000000000 0.413472000000000 255 0 0
0.029653000000000 0.281923000000000 0.410286000000000 255 0 0
0.044259000000000 0.266439000000000 0.412899000000000 255 0 0
0.030909000000000 0.267328000000000 0.411820000000000 255 0 0
0.020546000000000 0.269045000000000 0.406503000000000 255 0 0
0.043993000000000 0.251308000000000 0.411231000000000 255 0 0
0.032794000000000 0.254837000000000 0.411899000000000 255 0 0
0.044560000000000 0.235801000000000 0.408797000000000 255 0 0
0.028066000000000 0.238281000000000 0.407620000000000 255 0 0
0.038430000000000 0.544142000000000 0.413320000000000 255 0 0
0.093687000000000 0.530486000000000 0.422518000000000 255 0 0
0.044710000000000 0.527692000000000 0.411910000000000 255 0 0
0.088166000000000 0.516068000000000 0.416683000000000 255 0 0
0.045399000000000 0.515145000000000 0.415947000000000 255 0 0
0.085551000000000 0.501147000000000 0.413720000000000 255 0 0
0.045508000000000 0.500312000000000 0.420369000000000 255 0 0
0.084313000000000 0.488716000000000 0.411108000000000 255 0 0
0.080713000000000 0.472108000000000 0.415305000000000 255 0 0
0.079496000000000 0.453644000000000 0.413782000000000 255 0 0
0.079620000000000 0.436957000000000 0.413118000000000 255 0 0
0.080502000000000 0.420718000000000 0.413449000000000 255 0 0
0.081309000000000 0.405434000000000 0.413792000000000 255 0 0
0.081524000000000 0.390448000000000 0.412944000000000 255 0 0
0.026018000000000 0.387434000000000 0.396637000000000 255 0 0
0.081544000000000 0.375214000000000 0.411572000000000 255 0 0
0.024133000000000 0.374813000000000 0.398640000000000 255 0 0
0.081624000000000 0.360411000000000 0.408063000000000 255 0 0
0.022756000000000 0.359371000000000 0.399378000000000 255 0 0
0.073231000000000 0.344990000000000 0.415440000000000 255 0 0
0.021895000000000 0.343566000000000 0.399589000000000 255 0 0
0.072727000000000 0.329024000000000 0.410524000000000 255 0 0
0.021391000000000 0.327413000000000 0.399746000000000 255 0 0
0.071699000000000 0.310168000000000 0.406059000000000 255 0 0
0.020413000000000 0.311782000000000 0.400138000000000 255 0 0
0.066872000000000 0.292988000000000 0.407130000000000 255 0 0
0.020155000000000 0.299275000000000 0.401897000000000 255 0 0
0.057044000000000 0.280494000000000 0.410954000000000 255 0 0
0.015841000000000 0.280922000000000 0.398442000000000 255 0 0
0.056932000000000 0.265657000000000 0.408585000000000 255 0 0
0.056953000000000 0.250274000000000 0.406081000000000 255 0 0
0.019401000000000 0.253306000000000 0.406091000000000 255 0 0
0.006704000000000 0.246348000000000 0.393341000000000 255 0 0
0.057466000000000 0.235288000000000 0.402948000000000 255 0 0
0.013442000000000 0.237389000000000 0.401189000000000 255 0 0
0.047125000000000 0.222994000000000 0.405202000000000 255 0 0
0.033026000000000 0.220262000000000 0.404943000000000 255 0 0
0.014307000000000 0.218588000000000 0.396814000000000 255 0 0
0.041276000000000 0.206088000000000 0.401323000000000 255 0 0
0.023012000000000 0.202989000000000 0.399110000000000 255 0 0
0.011092000000000 0.199402000000000 0.391610000000000 255 0 0
0.042923000000000 0.187475000000000 0.397526000000000 255 0 0
0.027750000000000 0.187612000000000 0.397830000000000 255 0 0
0.013894000000000 0.186556000000000 0.391987000000000 255 0 0
0.043781000000000 0.171575000000000 0.395443000000000 255 0 0
0.030312000000000 0.172228000000000 0.396738000000000 255 0 0
0.016576000000000 0.171248000000000 0.391838000000000 255 0 0
0.033602000000000 0.160095000000000 0.395288000000000 255 0 0
0.047149000000000 0.546626000000000 0.399639000000000 255 0 0
0.092366000000000 0.533405000000000 0.405675000000000 255 0 0
0.050096000000000 0.530203000000000 0.401958000000000 255 0 0
0.083932000000000 0.516810000000000 0.403542000000000 255 0 0
0.050341000000000 0.513953000000000 0.402874000000000 255 0 0
0.081577000000000 0.501085000000000 0.402535000000000 255 0 0
0.046592000000000 0.496337000000000 0.404504000000000 255 0 0
0.080464000000000 0.485466000000000 0.402651000000000 255 0 0
0.043364000000000 0.479937000000000 0.399078000000000 255 0 0
0.079732000000000 0.469201000000000 0.402800000000000 255 0 0
0.039653000000000 0.467798000000000 0.400338000000000 255 0 0
0.079521000000000 0.452601000000000 0.401742000000000 255 0 0
0.036491000000000 0.452812000000000 0.400548000000000 255 0 0
0.080734000000000 0.434159000000000 0.399721000000000 255 0 0
0.033955000000000 0.437280000000000 0.400377000000000 255 0 0
0.084313000000000 0.417678000000000 0.404126000000000 255 0 0
0.032130000000000 0.421578000000000 0.400706000000000 255 0 0
0.084930000000000 0.405434000000000 0.401842000000000 255 0 0
0.030002000000000 0.404294000000000 0.402005000000000 255 0 0
0.085000000000000 0.390622000000000 0.400168000000000 255 0 0
0.084975000000000 0.375673000000000 0.398357000000000 255 0 0
0.084728000000000 0.362776000000000 0.395683000000000 255 0 0
0.081959000000000 0.345960000000000 0.400804000000000 255 0 0
0.081279000000000 0.327769000000000 0.398082000000000 255 0 0
0.081038000000000 0.313693000000000 0.392190000000000 255 0 0
0.075358000000000 0.297428000000000 0.397367000000000 255 0 0
0.067428000000000 0.281049000000000 0.402769000000000 255 0 0
0.008366000000000 0.279445000000000 0.379716000000000 255 0 0
0.067051000000000 0.266005000000000 0.398587000000000 255 0 0
0.011628000000000 0.262265000000000 0.399300000000000 255 0 0
0.005520000000000 0.261373000000000 0.384676000000000 255 0 0
0.066691000000000 0.250274000000000 0.395951000000000 255 0 0
0.066724000000000 0.235611000000000 0.391951000000000 255 0 0
0.006239000000000 0.230609000000000 0.392196000000000 255 0 0
0.057164000000000 0.220327000000000 0.398439000000000 255 0 0
0.002696000000000 0.217706000000000 0.382650000000000 255 0 0
0.056522000000000 0.203628000000000 0.393354000000000 255 0 0
0.004245000000000 0.202181000000000 0.382570000000000 255 0 0
0.057016000000000 0.185102000000000 0.389948000000000 255 0 0
0.004633000000000 0.186494000000000 0.381816000000000 255 0 0
0.053326000000000 0.168637000000000 0.389989000000000 255 0 0
0.005885000000000 0.170863000000000 0.381658000000000 255 0 0
0.044318000000000 0.157147000000000 0.392105000000000 255 0 0
0.021526000000000 0.156625000000000 0.391806000000000 255 0 0
0.008006000000000 0.152931000000000 0.381586000000000 255 0 0
0.045403000000000 0.144327000000000 0.387428000000000 255 0 0
0.031285000000000 0.144150000000000 0.390357000000000 255 0 0
0.015333000000000 0.140063000000000 0.385477000000000 255 0 0
0.039130000000000 0.127776000000000 0.384658000000000 255 0 0
0.022190000000000 0.125801000000000 0.384254000000000 255 0 0
0.009120000000000 0.124862000000000 0.377911000000000 255 0 0
0.026554000000000 0.109942000000000 0.381065000000000 255 0 0
0.012285000000000 0.110208000000000 0.376922000000000 255 0 0
0.029137000000000 0.094406000000000 0.378069000000000 255 0 0
0.014291000000000 0.093773000000000 0.374835000000000 255 0 0
0.029232000000000 -0.014709000000000 0.379351000000000 255 0 0
0.012407000000000 -0.019201000000000 0.385863000000000 255 0 0
0.088566000000000 0.549304000000000 0.391473000000000 255 0 0
0.071658000000000 0.551511000000000 0.389016000000000 255 0 0
0.059940000000000 0.548243000000000 0.392442000000000 255 0 0
0.076333000000000 0.534947000000000 0.394261000000000 255 0 0
0.061082000000000 0.531855000000000 0.394622000000000 255 0 0
0.073430000000000 0.516422000000000 0.395760000000000 255 0 0
0.060892000000000 0.514975000000000 0.395556000000000 255 0 0
0.072340000000000 0.499716000000000 0.395639000000000 255 0 0
0.059315000000000 0.496284000000000 0.394732000000000 255 0 0
0.072402000000000 0.483451000000000 0.394906000000000 255 0 0
0.063465000000000 0.479937000000000 0.390889000000000 255 0 0
0.052376000000000 0.481995000000000 0.393289000000000 255 0 0
0.072489000000000 0.467823000000000 0.393481000000000 255 0 0
0.060731000000000 0.467140000000000 0.388935000000000 255 0 0
0.047992000000000 0.467202000000000 0.391530000000000 255 0 0
0.071905000000000 0.451794000000000 0.391366000000000 255 0 0
0.058223000000000 0.449675000000000 0.384936000000000 255 0 0
0.043344000000000 0.452241000000000 0.389866000000000 255 0 0
0.081482000000000 0.420482000000000 0.392741000000000 255 0 0
0.072559000000000 0.435704000000000 0.386460000000000 255 0 0
0.039253000000000 0.436771000000000 0.388143000000000 255 0 0
0.034936000000000 0.421301000000000 0.387530000000000 255 0 0
0.081631000000000 0.405943000000000 0.389010000000000 255 0 0
0.031009000000000 0.406356000000000 0.387547000000000 255 0 0
0.081482000000000 0.390672000000000 0.387060000000000 255 0 0
0.027827000000000 0.390771000000000 0.386125000000000 255 0 0
0.081500000000000 0.374994000000000 0.385100000000000 255 0 0
0.025031000000000 0.374826000000000 0.384651000000000 255 0 0
0.081897000000000 0.356958000000000 0.383692000000000 255 0 0
0.021475000000000 0.359222000000000 0.384826000000000 255 0 0
0.084450000000000 0.340278000000000 0.388507000000000 255 0 0
0.018489000000000 0.343653000000000 0.385091000000000 255 0 0
0.084121000000000 0.328241000000000 0.384513000000000 255 0 0
0.016770000000000 0.328034000000000 0.385265000000000 255 0 0
0.082525000000000 0.317339000000000 0.380568000000000 255 0 0
0.015295000000000 0.311996000000000 0.385989000000000 255 0 0
0.079016000000000 0.303831000000000 0.383440000000000 255 0 0
0.013834000000000 0.296465000000000 0.389811000000000 255 0 0
0.074281000000000 0.284588000000000 0.387344000000000 255 0 0
0.072223000000000 0.266179000000000 0.384551000000000 255 0 0
0.071724000000000 0.250721000000000 0.382405000000000 255 0 0
0.001091000000000 0.244817000000000 0.379948000000000 255 0 0
0.071426000000000 0.238340000000000 0.379796000000000 255 0 0
0.000922000000000 0.232326000000000 0.381833000000000 255 0 0
0.067286000000000 0.221647000000000 0.384248000000000 255 0 0
0.066716000000000 0.203119000000000 0.381348000000000 255 0 0
0.067604000000000 0.188414000000000 0.376804000000000 255 0 0
0.062086000000000 0.174534000000000 0.382987000000000 255 0 0
0.057314000000000 0.156494000000000 0.380788000000000 255 0 0
0.051502000000000 0.138028000000000 0.381053000000000 255 0 0
0.005822000000000 0.136372000000000 0.376916000000000 255 0 0
0.051369000000000 0.125058000000000 0.375781000000000 255 0 0
0.001205000000000 0.124552000000000 0.368071000000000 255 0 0
0.041018000000000 0.110157000000000 0.378281000000000 255 0 0
0.003440000000000 0.112917000000000 0.369889000000000 255 0 0
0.042082000000000 0.095043000000000 0.372696000000000 255 0 0
0.000668000000000 0.095924000000000 0.364298000000000 255 0 0
0.031729000000000 0.082050000000000 0.374113000000000 255 0 0
0.018285000000000 0.078394000000000 0.373237000000000 255 0 0
0.001636000000000 0.075209000000000 0.364807000000000 255 0 0
0.025792000000000 0.065134000000000 0.370018000000000 255 0 0
0.007996000000000 0.061620000000000 0.367683000000000 255 0 0
-0.003800000000000 0.058008000000000 0.360180000000000 255 0 0
0.026935000000000 0.046432000000000 0.366522000000000 255 0 0
0.011750000000000 0.046730000000000 0.366543000000000 255 0 0
-0.001841000000000 0.045749000000000 0.360699000000000 255 0 0
0.026790000000000 0.029559000000000 0.366195000000000 255 0 0
0.012773000000000 0.030664000000000 0.366114000000000 255 0 0
-0.000684000000000 0.030788000000000 0.360937000000000 255 0 0
0.027618000000000 0.013965000000000 0.367660000000000 255 0 0
0.013567000000000 0.014412000000000 0.367975000000000 255 0 0
-0.000366000000000 0.015008000000000 0.362785000000000 255 0 0
0.033296000000000 -0.000189000000000 0.369098000000000 255 0 0
0.016320000000000 -0.002775000000000 0.373718000000000 255 0 0
0.000005000000000 -0.000568000000000 0.368302000000000 255 0 0
0.001244000000000 -0.012692000000000 0.377178000000000 255 0 0
0.063029000000000 0.433099000000000 0.379961000000000 255 0 0
0.073110000000000 0.420805000000000 0.381744000000000 255 0 0
0.050864000000000 0.435791000000000 0.380887000000000 255 0 0
0.060762000000000 0.420358000000000 0.376029000000000 255 0 0
0.045940000000000 0.418451000000000 0.377276000000000 255 0 0
0.072410000000000 0.405757000000000 0.378715000000000 255 0 0
0.059531000000000 0.404416000000000 0.372881000000000 255 0 0
0.048277000000000 0.401647000000000 0.371526000000000 255 0 0
0.038049000000000 0.405707000000000 0.376993000000000 255 0 0
0.072059000000000 0.389703000000000 0.376271000000000 255 0 0
0.058117000000000 0.386759000000000 0.368751000000000 255 0 0
0.042325000000000 0.390209000000000 0.370316000000000 255 0 0
0.033390000000000 0.394179000000000 0.377514000000000 255 0 0
0.072776000000000 0.373355000000000 0.373561000000000 255 0 0
0.034637000000000 0.377237000000000 0.372411000000000 255 0 0
0.081088000000000 0.342787000000000 0.376310000000000 255 0 0
0.072952000000000 0.357910000000000 0.369189000000000 255 0 0
0.028560000000000 0.359036000000000 0.371676000000000 255 0 0
0.023595000000000 0.343078000000000 0.371401000000000 255 0 0
0.079531000000000 0.328825000000000 0.372106000000000 255 0 0
0.019085000000000 0.328063000000000 0.371309000000000 255 0 0
0.077824000000000 0.314410000000000 0.371177000000000 255 0 0
0.015885000000000 0.312655000000000 0.371191000000000 255 0 0
0.074873000000000 0.298567000000000 0.371789000000000 255 0 0
0.012271000000000 0.293975000000000 0.371691000000000 255 0 0
0.072585000000000 0.281880000000000 0.371456000000000 255 0 0
0.008822000000000 0.276903000000000 0.365652000000000 255 0 0
0.071871000000000 0.265769000000000 0.369989000000000 255 0 0
0.004996000000000 0.264089000000000 0.368095000000000 255 0 0
0.071558000000000 0.250535000000000 0.368675000000000 255 0 0
0.002001000000000 0.248557000000000 0.368343000000000 255 0 0
0.071020000000000 0.234717000000000 0.368611000000000 255 0 0
0.000166000000000 0.233190000000000 0.367874000000000 255 0 0
0.071020000000000 0.218030000000000 0.369066000000000 255 0 0
-0.000364000000000 0.218130000000000 0.368234000000000 255 0 0
0.071720000000000 0.202982000000000 0.367937000000000 255 0 0
-0.000159000000000 0.202722000000000 0.368532000000000 255 0 0
0.071788000000000 0.191393000000000 0.364939000000000 255 0 0
0.000087000000000 0.187078000000000 0.368388000000000 255 0 0
0.067829000000000 0.175314000000000 0.368622000000000 255 0 0
0.000329000000000 0.171397000000000 0.368272000000000 255 0 0
0.065815000000000 0.158016000000000 0.362602000000000 255 0 0
0.000656000000000 0.155306000000000 0.368144000000000 255 0 0
0.059695000000000 0.139230000000000 0.369131000000000 255 0 0
0.000468000000000 0.139153000000000 0.367684000000000 255 0 0
0.056947000000000 0.125618000000000 0.367881000000000 255 0 0
0.052568000000000 0.112347000000000 0.367667000000000 255 0 0
0.051403000000000 0.095428000000000 0.361296000000000 255 0 0
-0.006541000000000 0.092793000000000 0.347525000000000 255 0 0
0.041561000000000 0.079656000000000 0.367348000000000 255 0 0
-0.007930000000000 0.077422000000000 0.351023000000000 255 0 0
0.040854000000000 0.062759000000000 0.362191000000000 255 0 0
-0.009558000000000 0.061024000000000 0.351131000000000 255 0 0
0.040897000000000 0.043583000000000 0.359549000000000 255 0 0
-0.010553000000000 0.045625000000000 0.350528000000000 255 0 0
0.036487000000000 0.026537000000000 0.363001000000000 255 0 0
-0.010559000000000 0.030639000000000 0.350934000000000 255 0 0
0.038834000000000 0.014469000000000 0.361487000000000 255 0 0
-0.011203000000000 0.015107000000000 0.353092000000000 255 0 0
0.042830000000000 0.001893000000000 0.360242000000000 255 0 0
0.061104000000000 -0.019164000000000 0.352665000000000 255 0 0
0.045423000000000 -0.012762000000000 0.366867000000000 255 0 0
0.063032000000000 0.370434000000000 0.365991000000000 255 0 0
0.050009000000000 0.373712000000000 0.365106000000000 255 0 0
0.071910000000000 0.343181000000000 0.365179000000000 255 0 0
0.060206000000000 0.357898000000000 0.362117000000000 255 0 0
0.044205000000000 0.356362000000000 0.362266000000000 255 0 0
0.059085000000000 0.342465000000000 0.358827000000000 255 0 0
0.047910000000000 0.339299000000000 0.357109000000000 255 0 0
0.035346000000000 0.342002000000000 0.361410000000000 255 0 0
0.070308000000000 0.328129000000000 0.362601000000000 255 0 0
0.058459000000000 0.327028000000000 0.356672000000000 255 0 0
0.044624000000000 0.326090000000000 0.355321000000000 255 0 0
0.029386000000000 0.324862000000000 0.359730000000000 255 0 0
0.068487000000000 0.312692000000000 0.361488000000000 255 0 0
0.057034000000000 0.311381000000000 0.354883000000000 255 0 0
0.042484000000000 0.308307000000000 0.351506000000000 255 0 0
0.028667000000000 0.308610000000000 0.353987000000000 255 0 0
0.021453000000000 0.314884000000000 0.361580000000000 255 0 0
0.067343000000000 0.296817000000000 0.360528000000000 255 0 0
0.057026000000000 0.295439000000000 0.351924000000000 255 0 0
0.021459000000000 0.297999000000000 0.356887000000000 255 0 0
0.066778000000000 0.280941000000000 0.358736000000000 255 0 0
0.015597000000000 0.279935000000000 0.355715000000000 255 0 0
0.066567000000000 0.265409000000000 0.356882000000000 255 0 0
0.010045000000000 0.265260000000000 0.355088000000000 255 0 0
0.066480000000000 0.249430000000000 0.355568000000000 255 0 0
0.007554000000000 0.250581000000000 0.354782000000000 255 0 0
0.067286000000000 0.230969000000000 0.353715000000000 255 0 0
0.005153000000000 0.234490000000000 0.353946000000000 255 0 0
0.071426000000000 0.214591000000000 0.358078000000000 255 0 0
0.002641000000000 0.218515000000000 0.353708000000000 255 0 0
0.071505000000000 0.202896000000000 0.355061000000000 255 0 0
0.000985000000000 0.202896000000000 0.353815000000000 255 0 0
0.070586000000000 0.188518000000000 0.353946000000000 255 0 0
0.000550000000000 0.187252000000000 0.353815000000000 255 0 0
0.068982000000000 0.173292000000000 0.352518000000000 255 0 0
0.000199000000000 0.171546000000000 0.353795000000000 255 0 0
0.066882000000000 0.161079000000000 0.349263000000000 255 0 0
-0.000372000000000 0.155865000000000 0.353803000000000 255 0 0
0.063471000000000 0.147127000000000 0.352858000000000 255 0 0
-0.001215000000000 0.140159000000000 0.353803000000000 255 0 0
0.059484000000000 0.128355000000000 0.355835000000000 255 0 0
-0.001963000000000 0.124307000000000 0.354321000000000 255 0 0
0.056868000000000 0.110911000000000 0.352539000000000 255 0 0
-0.002508000000000 0.109479000000000 0.357785000000000 255 0 0
0.055881000000000 0.097843000000000 0.349502000000000 255 0 0
0.051500000000000 0.081086000000000 0.353479000000000 255 0 0
0.050501000000000 0.062399000000000 0.350420000000000 255 0 0
0.050504000000000 0.047012000000000 0.345988000000000 255 0 0
0.045177000000000 0.030022000000000 0.354055000000000 255 0 0
0.047355000000000 0.013453000000000 0.348241000000000 255 0 0
0.051261000000000 -0.005394000000000 0.350539000000000 255 0 0
0.047389000000000 0.292195000000000 0.347366000000000 255 0 0
0.057424000000000 0.280221000000000 0.349465000000000 255 0 0
0.035185000000000 0.294820000000000 0.348454000000000 255 0 0
0.045056000000000 0.279591000000000 0.344350000000000 255 0 0
0.029331000000000 0.277842000000000 0.345836000000000 255 0 0
0.056808000000000 0.264838000000000 0.347013000000000 255 0 0
0.043819000000000 0.263612000000000 0.341397000000000 255 0 0
0.031896000000000 0.260916000000000 0.340164000000000 255 0 0
0.020493000000000 0.264854000000000 0.345531000000000 255 0 0
0.056580000000000 0.248374000000000 0.344513000000000 255 0 0
0.042310000000000 0.245911000000000 0.336951000000000 255 0 0
0.025621000000000 0.249414000000000 0.338966000000000 255 0 0
0.014831000000000 0.253533000000000 0.346078000000000 255 0 0
0.066724000000000 0.217198000000000 0.346831000000000 255 0 0
0.057238000000000 0.232259000000000 0.340381000000000 255 0 0
0.016970000000000 0.236645000000000 0.341219000000000 255 0 0
0.057466000000000 0.217434000000000 0.335740000000000 255 0 0
0.011959000000000 0.218453000000000 0.340516000000000 255 0 0
0.066370000000000 0.202809000000000 0.343067000000000 255 0 0
0.008253000000000 0.202747000000000 0.340447000000000 255 0 0
0.065530000000000 0.187636000000000 0.340932000000000 255 0 0
0.006345000000000 0.187252000000000 0.340489000000000 255 0 0
0.063887000000000 0.172684000000000 0.339754000000000 255 0 0
0.005496000000000 0.171484000000000 0.340447000000000 255 0 0
0.062159000000000 0.157909000000000 0.339661000000000 255 0 0
0.004564000000000 0.155501000000000 0.340155000000000 255 0 0
0.059333000000000 0.142066000000000 0.340835000000000 255 0 0
0.002169000000000 0.140336000000000 0.340022000000000 255 0 0
0.057086000000000 0.125678000000000 0.340835000000000 255 0 0
-0.000161000000000 0.124982000000000 0.339921000000000 255 0 0
0.056090000000000 0.110050000000000 0.339725000000000 255 0 0
-0.003107000000000 0.106454000000000 0.340259000000000 255 0 0
0.055025000000000 0.094580000000000 0.339448000000000 255 0 0
-0.005817000000000 0.089221000000000 0.334081000000000 255 0 0
0.054064000000000 0.078427000000000 0.338772000000000 255 0 0
-0.009398000000000 0.076913000000000 0.336425000000000 255 0 0
0.053533000000000 0.062932000000000 0.336829000000000 255 0 0
-0.012043000000000 0.061865000000000 0.337559000000000 255 0 0
0.052709000000000 0.050639000000000 0.334089000000000 255 0 0
-0.013800000000000 0.046308000000000 0.337708000000000 255 0 0
0.049615000000000 0.034065000000000 0.338188000000000 255 0 0
-0.015195000000000 0.030900000000000 0.337965000000000 255 0 0
0.048404000000000 0.019251000000000 0.333429000000000 255 0 0
-0.017165000000000 0.015256000000000 0.339903000000000 255 0 0
0.062042000000000 -0.014892000000000 0.336339000000000 255 0 0
0.051910000000000 0.001841000000000 0.332871000000000 255 0 0
0.075564000000000 -0.024850000000000 0.337468000000000 255 0 0
0.047289000000000 0.229714000000000 0.333834000000000 255 0 0
0.033964000000000 0.232917000000000 0.333510000000000 255 0 0
0.056673000000000 0.202511000000000 0.333219000000000 255 0 0
0.044644000000000 0.217165000000000 0.330210000000000 255 0 0
0.028337000000000 0.215621000000000 0.330934000000000 255 0 0
0.043822000000000 0.201670000000000 0.327321000000000 255 0 0
0.032687000000000 0.198728000000000 0.326020000000000 255 0 0
0.020258000000000 0.201819000000000 0.330610000000000 255 0 0
0.056055000000000 0.187103000000000 0.331183000000000 255 0 0
0.043508000000000 0.186420000000000 0.325798000000000 255 0 0
0.030109000000000 0.186420000000000 0.325436000000000 255 0 0
0.016814000000000 0.187016000000000 0.330618000000000 255 0 0
0.054639000000000 0.171839000000000 0.330537000000000 255 0 0
0.042443000000000 0.171434000000000 0.325424000000000 255 0 0
0.028739000000000 0.171521000000000 0.325424000000000 255 0 0
0.015698000000000 0.171546000000000 0.330618000000000 255 0 0
0.052818000000000 0.156402000000000 0.330614000000000 255 0 0
0.041472000000000 0.155964000000000 0.325424000000000 255 0 0
0.028032000000000 0.155778000000000 0.325258000000000 255 0 0
0.014757000000000 0.155352000000000 0.330151000000000 255 0 0
0.051736000000000 0.140589000000000 0.330763000000000 255 0 0
0.040851000000000 0.140134000000000 0.325082000000000 255 0 0
0.027338000000000 0.139196000000000 0.324230000000000 255 0 0
0.012591000000000 0.137337000000000 0.328577000000000 255 0 0
0.050960000000000 0.124763000000000 0.330345000000000 255 0 0
0.040564000000000 0.123828000000000 0.324036000000000 255 0 0
0.026535000000000 0.120708000000000 0.320721000000000 255 0 0
0.013013000000000 0.121022000000000 0.323101000000000 255 0 0
0.005637000000000 0.127221000000000 0.330314000000000 255 0 0
0.050654000000000 0.109057000000000 0.329453000000000 255 0 0
0.041309000000000 0.107713000000000 0.321758000000000 255 0 0
0.006315000000000 0.110664000000000 0.325948000000000 255 0 0
0.050534000000000 0.093364000000000 0.328538000000000 255 0 0
0.041843000000000 0.092557000000000 0.319125000000000 255 0 0
0.002251000000000 0.092122000000000 0.324521000000000 255 0 0
0.050271000000000 0.077894000000000 0.326587000000000 255 0 0
-0.002677000000000 0.076317000000000 0.323761000000000 255 0 0
0.049508000000000 0.062933000000000 0.324619000000000 255 0 0
-0.007004000000000 0.061716000000000 0.324412000000000 255 0 0
0.047706000000000 0.047757000000000 0.324500000000000 255 0 0
-0.010545000000000 0.046631000000000 0.324613000000000 255 0 0
0.046204000000000 0.032113000000000 0.323832000000000 255 0 0
-0.013790000000000 0.031508000000000 0.324689000000000 255 0 0
0.045587000000000 0.016035000000000 0.321378000000000 255 0 0
-0.017491000000000 0.015734000000000 0.325244000000000 255 0 0
0.060612000000000 -0.013362000000000 0.319282000000000 255 0 0
0.048588000000000 0.000226000000000 0.315033000000000 255 0 0
0.075174000000000 -0.023678000000000 0.321055000000000 255 0 0
0.031894000000000 0.104618000000000 0.317404000000000 255 0 0
0.019888000000000 0.107603000000000 0.317902000000000 255 0 0
0.041005000000000 0.077596000000000 0.317437000000000 255 0 0
0.029619000000000 0.092470000000000 0.314651000000000 255 0 0
0.015323000000000 0.092789000000000 0.316525000000000 255 0 0
0.027784000000000 0.077062000000000 0.312658000000000 255 0 0
0.012230000000000 0.074435000000000 0.314448000000000 255 0 0
0.040162000000000 0.062125000000000 0.315783000000000 255 0 0
0.027335000000000 0.060847000000000 0.310879000000000 255 0 0
0.016321000000000 0.057721000000000 0.309668000000000 255 0 0
0.004129000000000 0.060760000000000 0.314486000000000 255 0 0
0.038640000000000 0.046395000000000 0.314821000000000 255 0 0
0.026761000000000 0.045001000000000 0.309017000000000 255 0 0
0.012555000000000 0.044939000000000 0.308551000000000 255 0 0
-0.001181000000000 0.046122000000000 0.314072000000000 255 0 0
0.037168000000000 0.030313000000000 0.313220000000000 255 0 0
0.023792000000000 0.026859000000000 0.305096000000000 255 0 0
0.006449000000000 0.029648000000000 0.306207000000000 255 0 0
-0.006557000000000 0.031322000000000 0.313784000000000 255 0 0
0.037915000000000 0.013924000000000 0.309290000000000 255 0 0
-0.003612000000000 0.014833000000000 0.304860000000000 255 0 0
-0.012391000000000 0.018589000000000 0.314797000000000 255 0 0
0.040029000000000 -0.001715000000000 0.300982000000000 255 0 0
-0.018531000000000 -0.000290000000000 0.310756000000000 255 0 0
0.028641000000000 0.009491000000000 0.300156000000000 255 0 0
0.012729000000000 0.010481000000000 0.297628000000000 255 0 0
0.025507000000000 -0.005079000000000 0.288876000000000 255 0 0
0.009168000000000 -0.005185000000000 0.286740000000000 255 0 0
-0.003506000000000 -0.001464000000000 0.294844000000000 255 0 0
