ply
format ascii 1.0
element vertex 710
property double x
property double y
property double z
property uchar red
property uchar green
property uchar blue
end_header
0.492669000000000 0.559585000000000 0.094336000000000 255 0 0
0.481794000000000 0.565639000000000 0.103083000000000 255 0 0
0.466020000000000 0.561609000000000 0.098452000000000 255 0 0
0.449726000000000 0.561149000000000 0.087748000000000 255 0 0
0.478679000000000 0.550042000000000 0.091492000000000 255 0 0
0.461373000000000 0.547264000000000 0.087911000000000 255 0 0
0.449947000000000 0.543153000000000 0.079890000000000 255 0 0
0.482554000000000 0.533688000000000 0.083699000000000 255 0 0
0.469569000000000 0.536124000000000 0.085186000000000 255 0 0
0.441746000000000 0.575086000000000 0.084107000000000 255 0 0
0.441271000000000 0.579592000000000 0.069420000000000 255 0 0
0.507908000000000 0.564538000000000 0.087940000000000 255 0 0
0.441379000000000 0.562173000000000 0.070838000000000 255 0 0
0.495383000000000 0.547294000000000 0.084636000000000 255 0 0
0.442115000000000 0.546325000000000 0.071270000000000 255 0 0
0.496264000000000 0.531854000000000 0.076934000000000 255 0 0
0.456807000000000 0.531308000000000 0.080023000000000 255 0 0
0.443573000000000 0.528841000000000 0.070175000000000 255 0 0
0.484851000000000 0.520559000000000 0.077783000000000 255 0 0
0.468995000000000 0.519429000000000 0.079038000000000 255 0 0
0.449671000000000 0.513399000000000 0.072778000000000 255 0 0
0.440303000000000 0.515475000000000 0.066180000000000 255 0 0
0.478911000000000 0.503758000000000 0.073671000000000 255 0 0
0.460047000000000 0.500384000000000 0.073664000000000 255 0 0
0.446678000000000 0.496751000000000 0.069308000000000 255 0 0
0.436845000000000 0.501644000000000 0.062221000000000 255 0 0
0.480805000000000 0.485407000000000 0.069011000000000 255 0 0
0.465443000000000 0.485767000000000 0.071534000000000 255 0 0
0.450639000000000 0.484684000000000 0.069663000000000 255 0 0
0.437747000000000 0.483976000000000 0.063087000000000 255 0 0
0.466734000000000 0.470191000000000 0.068857000000000 255 0 0
0.454594000000000 0.472904000000000 0.069205000000000 255 0 0
0.467607000000000 0.454572000000000 0.066047000000000 255 0 0
0.450681000000000 0.455999000000000 0.064776000000000 255 0 0
0.522392000000000 0.567110000000000 0.070016000000000 255 0 0
0.509708000000000 0.546077000000000 0.071975000000000 255 0 0
0.505119000000000 0.529297000000000 0.067850000000000 255 0 0
0.495344000000000 0.517014000000000 0.070991000000000 255 0 0
0.494565000000000 0.501303000000000 0.064954000000000 255 0 0
0.427761000000000 0.498958000000000 0.048102000000000 255 0 0
0.494596000000000 0.484944000000000 0.060759000000000 255 0 0
0.427996000000000 0.484154000000000 0.052225000000000 255 0 0
0.481551000000000 0.469350000000000 0.065082000000000 255 0 0
0.442072000000000 0.469222000000000 0.064075000000000 255 0 0
0.428731000000000 0.466500000000000 0.053747000000000 255 0 0
0.482168000000000 0.454091000000000 0.061119000000000 255 0 0
0.433797000000000 0.452482000000000 0.057598000000000 255 0 0
0.424244000000000 0.450286000000000 0.048626000000000 255 0 0
0.481547000000000 0.438224000000000 0.057264000000000 255 0 0
0.470254000000000 0.441785000000000 0.062415000000000 255 0 0
0.455908000000000 0.438882000000000 0.062282000000000 255 0 0
0.438648000000000 0.435635000000000 0.057506000000000 255 0 0
0.425719000000000 0.437102000000000 0.048635000000000 255 0 0
0.480386000000000 0.421641000000000 0.053243000000000 255 0 0
0.464320000000000 0.425145000000000 0.058554000000000 255 0 0
0.446220000000000 0.422716000000000 0.057204000000000 255 0 0
0.436091000000000 0.422003000000000 0.054184000000000 255 0 0
0.466507000000000 0.407582000000000 0.054046000000000 255 0 0
0.451073000000000 0.407926000000000 0.054378000000000 255 0 0
0.434353000000000 0.408426000000000 0.049433000000000 255 0 0
0.455644000000000 0.395196000000000 0.052065000000000 255 0 0
0.445688000000000 0.591645000000000 0.058222000000000 255 0 0
0.442638000000000 0.574753000000000 0.052535000000000 255 0 0
0.527606000000000 0.568195000000000 0.053802000000000 255 0 0
0.439168000000000 0.562226000000000 0.055170000000000 255 0 0
0.520182000000000 0.552034000000000 0.053627000000000 255 0 0
0.437449000000000 0.546965000000000 0.056959000000000 255 0 0
0.512729000000000 0.535833000000000 0.059034000000000 255 0 0
0.437189000000000 0.533935000000000 0.059861000000000 255 0 0
0.506689000000000 0.519046000000000 0.057678000000000 255 0 0
0.434011000000000 0.517099000000000 0.056438000000000 255 0 0
0.428551000000000 0.509279000000000 0.039182000000000 255 0 0
0.504933000000000 0.501039000000000 0.052944000000000 255 0 0
0.504661000000000 0.485739000000000 0.048413000000000 255 0 0
0.494931000000000 0.469524000000000 0.056424000000000 255 0 0
0.494998000000000 0.453508000000000 0.051255000000000 255 0 0
0.495044000000000 0.435404000000000 0.046565000000000 255 0 0
0.490716000000000 0.418682000000000 0.046168000000000 255 0 0
0.427890000000000 0.421885000000000 0.048538000000000 255 0 0
0.480673000000000 0.406118000000000 0.048383000000000 255 0 0
0.419921000000000 0.406138000000000 0.037790000000000 255 0 0
0.480792000000000 0.391269000000000 0.043574000000000 255 0 0
0.467717000000000 0.392472000000000 0.049747000000000 255 0 0
0.441212000000000 0.391301000000000 0.048026000000000 255 0 0
0.423591000000000 0.387607000000000 0.037651000000000 255 0 0
0.469282000000000 0.379765000000000 0.044774000000000 255 0 0
0.453495000000000 0.378610000000000 0.046821000000000 255 0 0
0.433192000000000 0.371736000000000 0.041183000000000 255 0 0
0.419200000000000 0.370404000000000 0.032664000000000 255 0 0
0.463718000000000 0.363165000000000 0.040840000000000 255 0 0
0.445106000000000 0.360045000000000 0.041512000000000 255 0 0
0.432433000000000 0.355961000000000 0.038490000000000 255 0 0
0.421675000000000 0.357713000000000 0.033229000000000 255 0 0
0.451169000000000 0.345498000000000 0.037741000000000 255 0 0
0.438260000000000 0.347029000000000 0.038082000000000 255 0 0
0.453902000000000 0.593338000000000 0.041253000000000 255 0 0
0.448046000000000 0.577235000000000 0.040670000000000 255 0 0
0.525944000000000 0.565608000000000 0.040575000000000 255 0 0
0.442690000000000 0.561972000000000 0.040313000000000 255 0 0
0.520249000000000 0.552511000000000 0.037781000000000 255 0 0
0.437740000000000 0.546779000000000 0.041327000000000 255 0 0
0.515142000000000 0.535920000000000 0.043241000000000 255 0 0
0.433839000000000 0.528895000000000 0.043618000000000 255 0 0
0.511132000000000 0.517037000000000 0.040987000000000 255 0 0
0.509856000000000 0.501147000000000 0.038654000000000 255 0 0
0.423982000000000 0.495237000000000 0.035318000000000 255 0 0
0.509454000000000 0.488642000000000 0.035954000000000 255 0 0
0.422560000000000 0.483620000000000 0.038542000000000 255 0 0
0.505346000000000 0.471768000000000 0.040702000000000 255 0 0
0.421508000000000 0.468948000000000 0.041049000000000 255 0 0
0.504806000000000 0.453359000000000 0.037804000000000 255 0 0
0.420828000000000 0.456034000000000 0.042699000000000 255 0 0
0.505570000000000 0.438715000000000 0.032786000000000 255 0 0
0.417264000000000 0.440001000000000 0.036382000000000 255 0 0
0.412572000000000 0.437926000000000 0.019219000000000 255 0 0
0.499863000000000 0.424891000000000 0.038647000000000 255 0 0
0.417561000000000 0.422257000000000 0.037318000000000 255 0 0
0.411111000000000 0.422406000000000 0.022716000000000 255 0 0
0.494654000000000 0.406759000000000 0.036248000000000 255 0 0
0.411088000000000 0.406328000000000 0.023888000000000 255 0 0
0.489568000000000 0.388735000000000 0.034485000000000 255 0 0
0.411896000000000 0.390200000000000 0.024318000000000 255 0 0
0.479718000000000 0.376302000000000 0.037921000000000 255 0 0
0.411710000000000 0.374543000000000 0.024279000000000 255 0 0
0.479299000000000 0.360778000000000 0.030996000000000 255 0 0
0.411287000000000 0.359355000000000 0.023723000000000 255 0 0
0.466883000000000 0.345345000000000 0.033872000000000 255 0 0
0.426457000000000 0.343529000000000 0.033048000000000 255 0 0
0.413596000000000 0.343529000000000 0.024441000000000 255 0 0
0.469517000000000 0.331775000000000 0.027839000000000 255 0 0
0.455772000000000 0.329765000000000 0.032302000000000 255 0 0
0.437587000000000 0.330950000000000 0.032595000000000 255 0 0
0.419134000000000 0.326170000000000 0.025821000000000 255 0 0
0.405247000000000 0.327624000000000 0.015032000000000 255 0 0
0.462906000000000 0.314803000000000 0.024709000000000 255 0 0
0.444830000000000 0.313686000000000 0.028201000000000 255 0 0
0.428568000000000 0.313197000000000 0.026317000000000 255 0 0
0.418267000000000 0.312724000000000 0.023176000000000 255 0 0
0.449568000000000 0.298253000000000 0.022927000000000 255 0 0
0.434098000000000 0.298468000000000 0.023346000000000 255 0 0
0.417431000000000 0.299696000000000 0.018966000000000 255 0 0
0.439031000000000 0.286304000000000 0.020594000000000 255 0 0
0.464783000000000 0.593148000000000 0.027425000000000 255 0 0
0.458733000000000 0.577302000000000 0.027219000000000 255 0 0
0.519308000000000 0.564990000000000 0.027107000000000 255 0 0
0.450565000000000 0.561931000000000 0.026938000000000 255 0 0
0.514885000000000 0.548694000000000 0.027458000000000 255 0 0
0.442935000000000 0.547470000000000 0.027173000000000 255 0 0
0.511557000000000 0.532318000000000 0.027794000000000 255 0 0
0.437454000000000 0.532045000000000 0.026999000000000 255 0 0
0.510116000000000 0.516133000000000 0.026538000000000 255 0 0
0.432134000000000 0.515036000000000 0.025728000000000 255 0 0
0.509587000000000 0.500837000000000 0.025017000000000 255 0 0
0.426686000000000 0.498519000000000 0.024061000000000 255 0 0
0.509048000000000 0.485019000000000 0.024663000000000 255 0 0
0.421970000000000 0.483471000000000 0.024198000000000 255 0 0
0.509048000000000 0.468332000000000 0.024887000000000 255 0 0
0.418982000000000 0.468717000000000 0.026515000000000 255 0 0
0.509748000000000 0.453284000000000 0.023612000000000 255 0 0
0.416966000000000 0.454012000000000 0.030292000000000 255 0 0
0.509742000000000 0.441695000000000 0.020458000000000 255 0 0
0.505600000000000 0.425510000000000 0.024224000000000 255 0 0
0.502801000000000 0.407747000000000 0.019105000000000 255 0 0
0.497093000000000 0.394274000000000 0.026638000000000 255 0 0
0.491232000000000 0.378096000000000 0.025355000000000 255 0 0
0.489672000000000 0.361118000000000 0.018018000000000 255 0 0
0.480005000000000 0.344823000000000 0.024506000000000 255 0 0
0.479450000000000 0.326625000000000 0.016779000000000 255 0 0
0.396260000000000 0.326739000000000 0.000941000000000 255 0 0
0.473604000000000 0.309382000000000 0.015671000000000 255 0 0
0.409765000000000 0.312513000000000 0.017628000000000 255 0 0
0.398084000000000 0.309689000000000 0.005515000000000 255 0 0
0.463445000000000 0.296999000000000 0.017460000000000 255 0 0
0.404447000000000 0.299338000000000 0.011486000000000 255 0 0
0.450574000000000 0.283035000000000 0.017240000000000 255 0 0
0.424617000000000 0.282953000000000 0.016773000000000 255 0 0
0.405741000000000 0.281053000000000 0.006848000000000 255 0 0
0.449636000000000 0.266696000000000 0.011218000000000 255 0 0
0.435634000000000 0.272088000000000 0.015272000000000 255 0 0
0.417271000000000 0.263672000000000 0.009865000000000 255 0 0
0.402699000000000 0.262441000000000 0.001800000000000 255 0 0
0.449137000000000 0.249902000000000 0.005897000000000 255 0 0
0.432494000000000 0.253019000000000 0.009781000000000 255 0 0
0.417116000000000 0.247318000000000 0.006849000000000 255 0 0
0.405143000000000 0.249066000000000 0.001425000000000 255 0 0
0.435738000000000 0.236298000000000 0.005509000000000 255 0 0
0.423276000000000 0.238327000000000 0.006197000000000 255 0 0
0.481175000000000 0.590906000000000 0.016885000000000 255 0 0
0.497162000000000 0.577921000000000 0.013236000000000 255 0 0
0.485811000000000 0.573968000000000 0.012596000000000 255 0 0
0.472591000000000 0.576470000000000 0.017096000000000 255 0 0
0.508667000000000 0.563444000000000 0.017664000000000 255 0 0
0.496394000000000 0.561810000000000 0.012249000000000 255 0 0
0.482309000000000 0.560620000000000 0.011105000000000 255 0 0
0.464956000000000 0.558772000000000 0.015176000000000 255 0 0
0.506097000000000 0.547185000000000 0.017292000000000 255 0 0
0.494774000000000 0.545986000000000 0.010692000000000 255 0 0
0.479213000000000 0.542223000000000 0.006763000000000 255 0 0
0.463195000000000 0.541665000000000 0.008265000000000 255 0 0
0.452374000000000 0.546436000000000 0.016124000000000 255 0 0
0.504937000000000 0.531268000000000 0.016301000000000 255 0 0
0.494811000000000 0.529969000000000 0.007695000000000 255 0 0
0.452943000000000 0.530971000000000 0.007724000000000 255 0 0
0.444235000000000 0.535305000000000 0.017106000000000 255 0 0
0.504620000000000 0.515562000000000 0.014360000000000 255 0 0
0.441345000000000 0.519175000000000 0.011744000000000 255 0 0
0.504657000000000 0.499707000000000 0.011866000000000 255 0 0
0.433248000000000 0.501400000000000 0.010642000000000 255 0 0
0.505346000000000 0.481452000000000 0.009278000000000 255 0 0
0.426744000000000 0.484796000000000 0.009914000000000 255 0 0
0.509454000000000 0.464893000000000 0.013417000000000 255 0 0
0.420565000000000 0.468522000000000 0.010888000000000 255 0 0
0.509533000000000 0.453197000000000 0.010375000000000 255 0 0
0.415623000000000 0.452878000000000 0.014443000000000 255 0 0
0.508566000000000 0.438671000000000 0.008890000000000 255 0 0
0.412147000000000 0.436626000000000 0.003161000000000 255 0 0
0.506890000000000 0.422754000000000 0.007259000000000 255 0 0
0.408526000000000 0.421798000000000 0.006952000000000 255 0 0
0.504311000000000 0.407564000000000 0.003219000000000 255 0 0
0.406877000000000 0.406328000000000 0.008575000000000 255 0 0
0.500027000000000 0.392442000000000 0.013387000000000 255 0 0
0.406142000000000 0.390585000000000 0.009510000000000 255 0 0
0.496577000000000 0.376964000000000 0.008722000000000 255 0 0
0.405660000000000 0.375412000000000 0.010979000000000 255 0 0
0.495002000000000 0.363799000000000 0.004923000000000 255 0 0
0.405589000000000 0.363069000000000 0.013803000000000 255 0 0
0.490250000000000 0.346846000000000 0.008181000000000 255 0 0
0.402803000000000 0.345882000000000 0.010348000000000 255 0 0
0.396414000000000 0.339970000000000 -0.009702000000000 255 0 0
0.489647000000000 0.329568000000000 0.001091000000000 255 0 0
0.482996000000000 0.313220000000000 0.005798000000000 255 0 0
0.474701000000000 0.297404000000000 0.007486000000000 255 0 0
0.397586000000000 0.293426000000000 0.002307000000000 255 0 0
0.463913000000000 0.281656000000000 0.009234000000000 255 0 0
0.393422000000000 0.281241000000000 -0.006756000000000 255 0 0
0.463979000000000 0.263807000000000 0.000819000000000 255 0 0
0.394809000000000 0.266470000000000 -0.006522000000000 255 0 0
0.459553000000000 0.246767000000000 -0.000899000000000 255 0 0
0.395726000000000 0.252928000000000 -0.005949000000000 255 0 0
0.449757000000000 0.234681000000000 0.000381000000000 255 0 0
0.409990000000000 0.234311000000000 0.000890000000000 255 0 0
0.392982000000000 0.233816000000000 -0.011455000000000 255 0 0
0.448899000000000 0.219451000000000 -0.005525000000000 255 0 0
0.438068000000000 0.223326000000000 0.000479000000000 255 0 0
0.422085000000000 0.222287000000000 0.000653000000000 255 0 0
0.402750000000000 0.216230000000000 -0.006012000000000 255 0 0
0.389271000000000 0.214148000000000 -0.015096000000000 255 0 0
0.432402000000000 0.206577000000000 -0.005017000000000 255 0 0
0.413435000000000 0.204094000000000 -0.005755000000000 255 0 0
0.402498000000000 0.203068000000000 -0.008278000000000 255 0 0
0.419355000000000 0.188683000000000 -0.009829000000000 255 0 0
0.401767000000000 0.190041000000000 -0.012879000000000 255 0 0
0.484573000000000 0.526060000000000 0.002282000000000 255 0 0
0.495374000000000 0.514535000000000 0.004404000000000 255 0 0
0.468821000000000 0.526207000000000 0.001217000000000 255 0 0
0.482321000000000 0.512889000000000 -0.002672000000000 255 0 0
0.467459000000000 0.507852000000000 -0.006364000000000 255 0 0
0.453305000000000 0.514987000000000 0.000242000000000 255 0 0
0.495080000000000 0.498887000000000 0.000460000000000 255 0 0
0.481737000000000 0.497178000000000 -0.008469000000000 255 0 0
0.452766000000000 0.498304000000000 -0.007856000000000 255 0 0
0.442764000000000 0.504297000000000 0.001260000000000 255 0 0
0.504579000000000 0.467674000000000 0.001209000000000 255 0 0
0.494807000000000 0.483181000000000 -0.005522000000000 255 0 0
0.437913000000000 0.486922000000000 -0.004016000000000 255 0 0
0.427130000000000 0.469437000000000 -0.003611000000000 255 0 0
0.504347000000000 0.452862000000000 -0.003208000000000 255 0 0
0.419006000000000 0.451031000000000 -0.003300000000000 255 0 0
0.503956000000000 0.436970000000000 -0.005636000000000 255 0 0
0.415472000000000 0.434152000000000 -0.009957000000000 255 0 0
0.503659000000000 0.421537000000000 -0.007361000000000 255 0 0
0.410554000000000 0.421450000000000 -0.007972000000000 255 0 0
0.502312000000000 0.409519000000000 -0.009432000000000 255 0 0
0.407427000000000 0.406390000000000 -0.006921000000000 255 0 0
0.500390000000000 0.394002000000000 -0.004194000000000 255 0 0
0.405459000000000 0.390560000000000 -0.006304000000000 255 0 0
0.497289000000000 0.376443000000000 -0.006314000000000 255 0 0
0.403430000000000 0.374527000000000 -0.004892000000000 255 0 0
0.495495000000000 0.360622000000000 -0.007031000000000 255 0 0
0.401475000000000 0.359327000000000 0.000074000000000 255 0 0
0.494406000000000 0.345065000000000 -0.008394000000000 255 0 0
0.493454000000000 0.332699000000000 -0.012210000000000 255 0 0
0.391882000000000 0.323547000000000 -0.012273000000000 255 0 0
0.488923000000000 0.317229000000000 -0.010570000000000 255 0 0
0.391351000000000 0.311049000000000 -0.009211000000000 255 0 0
0.482622000000000 0.302031000000000 -0.003902000000000 255 0 0
0.391737000000000 0.295832000000000 -0.007928000000000 255 0 0
0.475967000000000 0.284689000000000 -0.005262000000000 255 0 0
0.474771000000000 0.267344000000000 -0.013311000000000 255 0 0
0.468621000000000 0.252947000000000 -0.008063000000000 255 0 0
0.463384000000000 0.234788000000000 -0.011455000000000 255 0 0
0.381164000000000 0.233298000000000 -0.029376000000000 255 0 0
0.458123000000000 0.216776000000000 -0.014211000000000 255 0 0
0.381331000000000 0.217186000000000 -0.025442000000000 255 0 0
0.448204000000000 0.203913000000000 -0.012920000000000 255 0 0
0.393925000000000 0.202248000000000 -0.013430000000000 255 0 0
0.382505000000000 0.199660000000000 -0.024677000000000 255 0 0
0.435604000000000 0.188732000000000 -0.012403000000000 255 0 0
0.388696000000000 0.189693000000000 -0.019742000000000 255 0 0
0.438353000000000 0.175337000000000 -0.018857000000000 255 0 0
0.424856000000000 0.172933000000000 -0.015026000000000 255 0 0
0.408170000000000 0.172458000000000 -0.016336000000000 255 0 0
0.389892000000000 0.171589000000000 -0.024887000000000 255 0 0
0.432037000000000 0.158534000000000 -0.022485000000000 255 0 0
0.414936000000000 0.157388000000000 -0.019694000000000 255 0 0
0.399812000000000 0.156231000000000 -0.022732000000000 255 0 0
0.387933000000000 0.152783000000000 -0.029813000000000 255 0 0
0.419233000000000 0.142638000000000 -0.024847000000000 255 0 0
0.406754000000000 0.144611000000000 -0.024093000000000 255 0 0
0.481543000000000 0.481543000000000 -0.014708000000000 255 0 0
0.467165000000000 0.491615000000000 -0.013404000000000 255 0 0
0.494505000000000 0.467604000000000 -0.011372000000000 255 0 0
0.468819000000000 0.477840000000000 -0.019660000000000 255 0 0
0.452961000000000 0.479810000000000 -0.016520000000000 255 0 0
0.480106000000000 0.464333000000000 -0.021886000000000 255 0 0
0.462095000000000 0.465427000000000 -0.024766000000000 255 0 0
0.448168000000000 0.463806000000000 -0.023257000000000 255 0 0
0.437465000000000 0.468519000000000 -0.015166000000000 255 0 0
0.495113000000000 0.451360000000000 -0.015920000000000 255 0 0
0.437581000000000 0.452293000000000 -0.023600000000000 255 0 0
0.428124000000000 0.456292000000000 -0.013955000000000 255 0 0
0.495597000000000 0.433780000000000 -0.019855000000000 255 0 0
0.424978000000000 0.439260000000000 -0.019874000000000 255 0 0
0.499655000000000 0.418566000000000 -0.017309000000000 255 0 0
0.416943000000000 0.422536000000000 -0.020551000000000 255 0 0
0.497780000000000 0.406626000000000 -0.018776000000000 255 0 0
0.413325000000000 0.407421000000000 -0.020876000000000 255 0 0
0.495890000000000 0.391280000000000 -0.019347000000000 255 0 0
0.409691000000000 0.391218000000000 -0.021491000000000 255 0 0
0.494835000000000 0.375338000000000 -0.020466000000000 255 0 0
0.405634000000000 0.374478000000000 -0.021289000000000 255 0 0
0.494245000000000 0.359719000000000 -0.021267000000000 255 0 0
0.400921000000000 0.355812000000000 -0.019587000000000 255 0 0
0.493467000000000 0.344671000000000 -0.022596000000000 255 0 0
0.396780000000000 0.338769000000000 -0.025818000000000 255 0 0
0.491777000000000 0.330136000000000 -0.023693000000000 255 0 0
0.392655000000000 0.326085000000000 -0.024097000000000 255 0 0
0.488344000000000 0.317630000000000 -0.025590000000000 255 0 0
0.390418000000000 0.311422000000000 -0.023454000000000 255 0 0
0.484145000000000 0.301508000000000 -0.020121000000000 255 0 0
0.389100000000000 0.296399000000000 -0.022270000000000 255 0 0
0.480051000000000 0.283108000000000 -0.023204000000000 255 0 0
0.388615000000000 0.281524000000000 -0.020482000000000 255 0 0
0.478877000000000 0.269791000000000 -0.026677000000000 255 0 0
0.389175000000000 0.269474000000000 -0.017111000000000 255 0 0
0.474658000000000 0.253279000000000 -0.022605000000000 255 0 0
0.387346000000000 0.252622000000000 -0.019985000000000 255 0 0
0.381731000000000 0.246224000000000 -0.040720000000000 255 0 0
0.471803000000000 0.235665000000000 -0.028154000000000 255 0 0
0.465827000000000 0.222449000000000 -0.021650000000000 255 0 0
0.460158000000000 0.206694000000000 -0.025271000000000 255 0 0
0.449022000000000 0.188640000000000 -0.021296000000000 255 0 0
0.381853000000000 0.183886000000000 -0.028899000000000 255 0 0
0.448195000000000 0.170285000000000 -0.029959000000000 255 0 0
0.377783000000000 0.171557000000000 -0.038333000000000 255 0 0
0.442421000000000 0.153048000000000 -0.031295000000000 255 0 0
0.379425000000000 0.156128000000000 -0.038315000000000 255 0 0
0.432765000000000 0.141359000000000 -0.029958000000000 255 0 0
0.394444000000000 0.140510000000000 -0.029322000000000 255 0 0
0.381800000000000 0.139811000000000 -0.038016000000000 255 0 0
0.421888000000000 0.129716000000000 -0.030843000000000 255 0 0
0.406318000000000 0.128513000000000 -0.030272000000000 255 0 0
0.387740000000000 0.122920000000000 -0.036945000000000 255 0 0
0.374013000000000 0.124370000000000 -0.047775000000000 255 0 0
0.416701000000000 0.112810000000000 -0.037072000000000 255 0 0
0.397946000000000 0.110178000000000 -0.037245000000000 255 0 0
0.387069000000000 0.109218000000000 -0.040008000000000 255 0 0
0.403777000000000 0.094568000000000 -0.041607000000000 255 0 0
0.386126000000000 0.095498000000000 -0.045062000000000 255 0 0
0.485332000000000 0.448132000000000 -0.024961000000000 255 0 0
0.471940000000000 0.450711000000000 -0.029432000000000 255 0 0
0.453819000000000 0.448643000000000 -0.030211000000000 255 0 0
0.491471000000000 0.420747000000000 -0.026384000000000 255 0 0
0.482286000000000 0.435728000000000 -0.030147000000000 255 0 0
0.467346000000000 0.435237000000000 -0.034833000000000 255 0 0
0.453967000000000 0.432003000000000 -0.036315000000000 255 0 0
0.439154000000000 0.434309000000000 -0.031808000000000 255 0 0
0.479796000000000 0.420677000000000 -0.034594000000000 255 0 0
0.464115000000000 0.417426000000000 -0.040044000000000 255 0 0
0.446326000000000 0.419962000000000 -0.038900000000000 255 0 0
0.436045000000000 0.421737000000000 -0.035994000000000 255 0 0
0.427933000000000 0.422855000000000 -0.030430000000000 255 0 0
0.489866000000000 0.406030000000000 -0.029516000000000 255 0 0
0.479318000000000 0.404872000000000 -0.037991000000000 255 0 0
0.434188000000000 0.408511000000000 -0.038665000000000 255 0 0
0.421441000000000 0.410836000000000 -0.029859000000000 255 0 0
0.489224000000000 0.390448000000000 -0.031173000000000 255 0 0
0.479776000000000 0.389567000000000 -0.040897000000000 255 0 0
0.421102000000000 0.393527000000000 -0.035260000000000 255 0 0
0.488931000000000 0.374891000000000 -0.032965000000000 255 0 0
0.413845000000000 0.375276000000000 -0.035819000000000 255 0 0
0.488771000000000 0.359421000000000 -0.034399000000000 255 0 0
0.407980000000000 0.358623000000000 -0.036172000000000 255 0 0
0.487875000000000 0.344100000000000 -0.035446000000000 255 0 0
0.402095000000000 0.342334000000000 -0.037254000000000 255 0 0
0.485854000000000 0.329102000000000 -0.036688000000000 255 0 0
0.397727000000000 0.327165000000000 -0.038171000000000 255 0 0
0.483266000000000 0.313850000000000 -0.036731000000000 255 0 0
0.393617000000000 0.312204000000000 -0.038097000000000 255 0 0
0.480311000000000 0.297709000000000 -0.037107000000000 255 0 0
0.390436000000000 0.296610000000000 -0.037679000000000 255 0 0
0.478961000000000 0.281475000000000 -0.038608000000000 255 0 0
0.388316000000000 0.280664000000000 -0.036180000000000 255 0 0
0.478282000000000 0.265545000000000 -0.038309000000000 255 0 0
0.386192000000000 0.265538000000000 -0.031062000000000 255 0 0
0.476908000000000 0.250050000000000 -0.038830000000000 255 0 0
0.473786000000000 0.235723000000000 -0.043808000000000 255 0 0
0.377081000000000 0.229833000000000 -0.043365000000000 255 0 0
0.468854000000000 0.221095000000000 -0.034534000000000 255 0 0
0.375930000000000 0.217559000000000 -0.040100000000000 255 0 0
0.465527000000000 0.208397000000000 -0.040228000000000 255 0 0
0.375710000000000 0.202064000000000 -0.038912000000000 255 0 0
0.459655000000000 0.190890000000000 -0.037786000000000 255 0 0
0.376091000000000 0.186276000000000 -0.038905000000000 255 0 0
0.458377000000000 0.173183000000000 -0.045770000000000 255 0 0
0.451709000000000 0.156781000000000 -0.041134000000000 255 0 0
0.443525000000000 0.141317000000000 -0.039582000000000 255 0 0
0.432739000000000 0.126533000000000 -0.038210000000000 255 0 0
0.365571000000000 0.123208000000000 -0.061343000000000 255 0 0
0.432405000000000 0.110160000000000 -0.047366000000000 255 0 0
0.378283000000000 0.109032000000000 -0.046012000000000 255 0 0
0.419761000000000 0.094321000000000 -0.045061000000000 255 0 0
0.371066000000000 0.093252000000000 -0.056470000000000 255 0 0
0.421602000000000 0.080719000000000 -0.050767000000000 255 0 0
0.408942000000000 0.078894000000000 -0.046789000000000 255 0 0
0.392844000000000 0.078030000000000 -0.047944000000000 255 0 0
0.375974000000000 0.074921000000000 -0.056827000000000 255 0 0
0.399292000000000 0.063454000000000 -0.051308000000000 255 0 0
0.384489000000000 0.061719000000000 -0.054288000000000 255 0 0
0.372980000000000 0.057497000000000 -0.061901000000000 255 0 0
0.403494000000000 0.048915000000000 -0.056736000000000 255 0 0
0.391147000000000 0.050599000000000 -0.055704000000000 255 0 0
0.469157000000000 0.401192000000000 -0.043164000000000 255 0 0
0.453425000000000 0.401942000000000 -0.044645000000000 255 0 0
0.479403000000000 0.374568000000000 -0.042730000000000 255 0 0
0.467377000000000 0.388533000000000 -0.046624000000000 255 0 0
0.455451000000000 0.385497000000000 -0.049338000000000 255 0 0
0.439355000000000 0.387136000000000 -0.046790000000000 255 0 0
0.466685000000000 0.373712000000000 -0.049536000000000 255 0 0
0.452188000000000 0.372498000000000 -0.052389000000000 255 0 0
0.439133000000000 0.370021000000000 -0.052654000000000 255 0 0
0.426443000000000 0.374199000000000 -0.046640000000000 255 0 0
0.478801000000000 0.359185000000000 -0.044793000000000 255 0 0
0.465512000000000 0.358279000000000 -0.052003000000000 255 0 0
0.449692000000000 0.355322000000000 -0.056803000000000 255 0 0
0.432481000000000 0.357844000000000 -0.055376000000000 255 0 0
0.418319000000000 0.358974000000000 -0.048125000000000 255 0 0
0.478058000000000 0.343566000000000 -0.046352000000000 255 0 0
0.465365000000000 0.342424000000000 -0.055121000000000 255 0 0
0.412369000000000 0.343070000000000 -0.050064000000000 255 0 0
0.476564000000000 0.328046000000000 -0.048179000000000 255 0 0
0.405856000000000 0.327942000000000 -0.051060000000000 255 0 0
0.474768000000000 0.312403000000000 -0.050004000000000 255 0 0
0.400601000000000 0.313139000000000 -0.051839000000000 255 0 0
0.473794000000000 0.296125000000000 -0.051849000000000 255 0 0
0.397574000000000 0.297165000000000 -0.052633000000000 255 0 0
0.473925000000000 0.277901000000000 -0.054078000000000 255 0 0
0.392858000000000 0.280553000000000 -0.052308000000000 255 0 0
0.477022000000000 0.261597000000000 -0.049668000000000 255 0 0
0.386958000000000 0.262023000000000 -0.050416000000000 255 0 0
0.475002000000000 0.249889000000000 -0.053153000000000 255 0 0
0.383770000000000 0.245189000000000 -0.056515000000000 255 0 0
0.471817000000000 0.238399000000000 -0.056616000000000 255 0 0
0.379308000000000 0.232433000000000 -0.055211000000000 255 0 0
0.469236000000000 0.222668000000000 -0.051745000000000 255 0 0
0.376045000000000 0.217683000000000 -0.054742000000000 255 0 0
0.465228000000000 0.204820000000000 -0.053016000000000 255 0 0
0.374451000000000 0.202660000000000 -0.053823000000000 255 0 0
0.463260000000000 0.188741000000000 -0.054976000000000 255 0 0
0.373601000000000 0.187003000000000 -0.053467000000000 255 0 0
0.462166000000000 0.176260000000000 -0.059055000000000 255 0 0
0.373198000000000 0.171549000000000 -0.052532000000000 255 0 0
0.457635000000000 0.160791000000000 -0.057502000000000 255 0 0
0.373648000000000 0.159078000000000 -0.049341000000000 255 0 0
0.451334000000000 0.145656000000000 -0.050866000000000 255 0 0
0.371588000000000 0.141699000000000 -0.052341000000000 255 0 0
0.365992000000000 0.133702000000000 -0.070227000000000 255 0 0
0.444465000000000 0.128684000000000 -0.052523000000000 255 0 0
0.442692000000000 0.110604000000000 -0.061541000000000 255 0 0
0.367312000000000 0.108776000000000 -0.057537000000000 255 0 0
0.432840000000000 0.091834000000000 -0.056394000000000 255 0 0
0.362305000000000 0.093239000000000 -0.070156000000000 255 0 0
0.427430000000000 0.075120000000000 -0.058254000000000 255 0 0
0.364366000000000 0.077140000000000 -0.069970000000000 255 0 0
0.415644000000000 0.064953000000000 -0.054654000000000 255 0 0
0.365137000000000 0.060499000000000 -0.070666000000000 255 0 0
0.416952000000000 0.048133000000000 -0.063157000000000 255 0 0
0.379024000000000 0.045894000000000 -0.060998000000000 255 0 0
0.366105000000000 0.043077000000000 -0.070916000000000 255 0 0
0.406577000000000 0.035957000000000 -0.062481000000000 255 0 0
0.391068000000000 0.034307000000000 -0.061187000000000 255 0 0
0.372625000000000 0.028047000000000 -0.067221000000000 255 0 0
0.362089000000000 0.028049000000000 -0.075222000000000 255 0 0
0.402938000000000 0.018894000000000 -0.065582000000000 255 0 0
0.383851000000000 0.014809000000000 -0.064510000000000 255 0 0
0.369951000000000 0.011805000000000 -0.068100000000000 255 0 0
0.363094000000000 0.017716000000000 -0.073129000000000 255 0 0
0.410632000000000 0.001735000000000 -0.067620000000000 255 0 0
0.394073000000000 0.000100000000000 -0.061982000000000 255 0 0
0.374768000000000 -0.002767000000000 -0.062069000000000 255 0 0
0.358211000000000 0.002097000000000 -0.072116000000000 255 0 0
0.454526000000000 0.339295000000000 -0.060500000000000 255 0 0
0.441086000000000 0.342089000000000 -0.061640000000000 255 0 0
0.465044000000000 0.327090000000000 -0.057880000000000 255 0 0
0.425729000000000 0.342834000000000 -0.058585000000000 255 0 0
0.451358000000000 0.326582000000000 -0.064537000000000 255 0 0
0.435701000000000 0.326656000000000 -0.066149000000000 255 0 0
0.418774000000000 0.325439000000000 -0.062240000000000 255 0 0
0.463664000000000 0.311447000000000 -0.061064000000000 255 0 0
0.448641000000000 0.308880000000000 -0.069793000000000 255 0 0
0.430854000000000 0.310806000000000 -0.071186000000000 255 0 0
0.417938000000000 0.309353000000000 -0.068578000000000 255 0 0
0.410050000000000 0.315176000000000 -0.060919000000000 255 0 0
0.463697000000000 0.294996000000000 -0.064497000000000 255 0 0
0.409723000000000 0.298763000000000 -0.065849000000000 255 0 0
0.471379000000000 0.264366000000000 -0.061772000000000 255 0 0
0.463793000000000 0.279625000000000 -0.069101000000000 255 0 0
0.402749000000000 0.280829000000000 -0.066247000000000 255 0 0
0.396481000000000 0.264785000000000 -0.066119000000000 255 0 0
0.469394000000000 0.250423000000000 -0.065786000000000 255 0 0
0.390247000000000 0.249339000000000 -0.066849000000000 255 0 0
0.466742000000000 0.235449000000000 -0.066456000000000 255 0 0
0.385525000000000 0.234267000000000 -0.068314000000000 255 0 0
0.464521000000000 0.219421000000000 -0.066523000000000 255 0 0
0.382344000000000 0.218759000000000 -0.068831000000000 255 0 0
0.463278000000000 0.203404000000000 -0.067567000000000 255 0 0
0.378112000000000 0.203107000000000 -0.068764000000000 255 0 0
0.462179000000000 0.188232000000000 -0.069093000000000 255 0 0
0.375324000000000 0.187401000000000 -0.068913000000000 255 0 0
0.460489000000000 0.173697000000000 -0.070335000000000 255 0 0
0.373300000000000 0.171264000000000 -0.068437000000000 255 0 0
0.457057000000000 0.161191000000000 -0.072260000000000 255 0 0
0.370657000000000 0.153325000000000 -0.065928000000000 255 0 0
0.452857000000000 0.145115000000000 -0.066889000000000 255 0 0
0.448569000000000 0.126698000000000 -0.070357000000000 255 0 0
0.361841000000000 0.119710000000000 -0.074226000000000 255 0 0
0.447159000000000 0.113606000000000 -0.074901000000000 255 0 0
0.361133000000000 0.108080000000000 -0.071548000000000 255 0 0
0.442944000000000 0.097282000000000 -0.074293000000000 255 0 0
0.435991000000000 0.078344000000000 -0.069644000000000 255 0 0
0.427370000000000 0.062540000000000 -0.065601000000000 255 0 0
0.427350000000000 0.048120000000000 -0.074617000000000 255 0 0
0.417293000000000 0.032939000000000 -0.069901000000000 255 0 0
0.418429000000000 0.017283000000000 -0.074834000000000 255 0 0
0.421721000000000 0.004204000000000 -0.076805000000000 255 0 0
0.344349000000000 -0.000136000000000 -0.084736000000000 255 0 0
0.453952000000000 0.292378000000000 -0.072918000000000 255 0 0
0.440937000000000 0.295269000000000 -0.076106000000000 255 0 0
0.425321000000000 0.295845000000000 -0.074510000000000 255 0 0
0.461711000000000 0.265173000000000 -0.073169000000000 255 0 0
0.451221000000000 0.280159000000000 -0.077095000000000 255 0 0
0.436534000000000 0.280187000000000 -0.079899000000000 255 0 0
0.419389000000000 0.278143000000000 -0.077162000000000 255 0 0
0.449224000000000 0.265049000000000 -0.080476000000000 255 0 0
0.434628000000000 0.263708000000000 -0.083051000000000 255 0 0
0.421838000000000 0.260495000000000 -0.083104000000000 255 0 0
0.408882000000000 0.264221000000000 -0.077072000000000 255 0 0
0.459631000000000 0.250001000000000 -0.075758000000000 255 0 0
0.447906000000000 0.248892000000000 -0.082752000000000 255 0 0
0.432660000000000 0.245408000000000 -0.087258000000000 255 0 0
0.415060000000000 0.248032000000000 -0.084821000000000 255 0 0
0.400595000000000 0.250026000000000 -0.077343000000000 255 0 0
0.458593000000000 0.234183000000000 -0.077066000000000 255 0 0
0.448030000000000 0.232789000000000 -0.085140000000000 255 0 0
0.405557000000000 0.234325000000000 -0.085697000000000 255 0 0
0.394630000000000 0.237993000000000 -0.076957000000000 255 0 0
0.457937000000000 0.218366000000000 -0.078177000000000 255 0 0
0.448488000000000 0.217484000000000 -0.087828000000000 255 0 0
0.394446000000000 0.221094000000000 -0.082215000000000 255 0 0
0.457570000000000 0.202896000000000 -0.079984000000000 255 0 0
0.386951000000000 0.203545000000000 -0.082439000000000 255 0 0
0.456588000000000 0.187661000000000 -0.081653000000000 255 0 0
0.382479000000000 0.188137000000000 -0.083049000000000 255 0 0
0.454566000000000 0.172663000000000 -0.082750000000000 255 0 0
0.378554000000000 0.171952000000000 -0.083867000000000 255 0 0
0.451978000000000 0.157411000000000 -0.083011000000000 255 0 0
0.374084000000000 0.155413000000000 -0.083601000000000 255 0 0
0.448982000000000 0.141395000000000 -0.083336000000000 255 0 0
0.369374000000000 0.138875000000000 -0.083953000000000 255 0 0
0.447383000000000 0.125781000000000 -0.085047000000000 255 0 0
0.364690000000000 0.122942000000000 -0.085446000000000 255 0 0
0.446048000000000 0.110994000000000 -0.086545000000000 255 0 0
0.361019000000000 0.108081000000000 -0.085806000000000 255 0 0
0.444343000000000 0.098567000000000 -0.089495000000000 255 0 0
0.359563000000000 0.093215000000000 -0.085111000000000 255 0 0
0.440292000000000 0.082430000000000 -0.087699000000000 255 0 0
0.359262000000000 0.077682000000000 -0.084792000000000 255 0 0
0.434653000000000 0.064073000000000 -0.080034000000000 255 0 0
0.359269000000000 0.061790000000000 -0.084527000000000 255 0 0
0.432699000000000 0.051497000000000 -0.087349000000000 255 0 0
0.358914000000000 0.046125000000000 -0.083420000000000 255 0 0
0.427579000000000 0.034474000000000 -0.084315000000000 255 0 0
0.358469000000000 0.033473000000000 -0.081210000000000 255 0 0
0.426999000000000 0.016634000000000 -0.086633000000000 255 0 0
0.354483000000000 0.017599000000000 -0.083005000000000 255 0 0
0.346491000000000 0.011883000000000 -0.100590000000000 255 0 0
0.427990000000000 0.000841000000000 -0.086711000000000 255 0 0
0.438018000000000 0.229109000000000 -0.090095000000000 255 0 0
0.423046000000000 0.229934000000000 -0.091355000000000 255 0 0
0.447898000000000 0.202486000000000 -0.089662000000000 255 0 0
0.436312000000000 0.216525000000000 -0.093530000000000 255 0 0
0.424818000000000 0.213902000000000 -0.095961000000000 255 0 0
0.410967000000000 0.217266000000000 -0.092558000000000 255 0 0
0.435213000000000 0.201791000000000 -0.096298000000000 255 0 0
0.420425000000000 0.201001000000000 -0.098154000000000 255 0 0
0.402491000000000 0.200098000000000 -0.094079000000000 255 0 0
0.446833000000000 0.187190000000000 -0.091812000000000 255 0 0
0.433502000000000 0.186177000000000 -0.098598000000000 255 0 0
0.416978000000000 0.182765000000000 -0.102384000000000 255 0 0
0.400983000000000 0.183091000000000 -0.100008000000000 255 0 0
0.391718000000000 0.189920000000000 -0.092286000000000 255 0 0
0.445128000000000 0.171633000000000 -0.093308000000000 255 0 0
0.433177000000000 0.170161000000000 -0.101812000000000 255 0 0
0.390051000000000 0.173258000000000 -0.097154000000000 255 0 0
0.443547000000000 0.155939000000000 -0.094961000000000 255 0 0
0.382941000000000 0.155787000000000 -0.097719000000000 255 0 0
0.442485000000000 0.140382000000000 -0.096666000000000 255 0 0
0.376568000000000 0.140245000000000 -0.097962000000000 255 0 0
0.441726000000000 0.125024000000000 -0.098001000000000 255 0 0
0.371124000000000 0.125061000000000 -0.098708000000000 255 0 0
0.441018000000000 0.109963000000000 -0.099538000000000 255 0 0
0.367125000000000 0.109182000000000 -0.099800000000000 255 0 0
0.439675000000000 0.095295000000000 -0.100788000000000 255 0 0
0.362791000000000 0.093364000000000 -0.100037000000000 255 0 0
0.436886000000000 0.082778000000000 -0.103097000000000 255 0 0
0.359925000000000 0.077745000000000 -0.100146000000000 255 0 0
0.435139000000000 0.066566000000000 -0.098077000000000 255 0 0
0.358373000000000 0.061977000000000 -0.100095000000000 255 0 0
0.431437000000000 0.048273000000000 -0.099771000000000 255 0 0
0.356540000000000 0.045944000000000 -0.098755000000000 255 0 0
0.429728000000000 0.031558000000000 -0.100316000000000 255 0 0
0.354143000000000 0.030618000000000 -0.093682000000000 255 0 0
0.429803000000000 0.015194000000000 -0.100893000000000 255 0 0
0.431207000000000 -0.001111000000000 -0.101355000000000 255 0 0
0.336436000000000 -0.002675000000000 -0.096971000000000 255 0 0
0.328093000000000 -0.008619000000000 -0.101604000000000 255 0 0
0.422363000000000 0.166444000000000 -0.106741000000000 255 0 0
0.433134000000000 0.154909000000000 -0.104399000000000 255 0 0
0.407568000000000 0.167208000000000 -0.106596000000000 255 0 0
0.420603000000000 0.153866000000000 -0.110323000000000 255 0 0
0.408959000000000 0.151226000000000 -0.112149000000000 255 0 0
0.396097000000000 0.154508000000000 -0.107812000000000 255 0 0
0.432347000000000 0.139786000000000 -0.106742000000000 255 0 0
0.419344000000000 0.138768000000000 -0.113103000000000 255 0 0
0.404438000000000 0.138396000000000 -0.114448000000000 255 0 0
0.388290000000000 0.137617000000000 -0.109757000000000 255 0 0
0.431814000000000 0.124018000000000 -0.108668000000000 255 0 0
0.417162000000000 0.121133000000000 -0.116845000000000 255 0 0
0.399571000000000 0.122993000000000 -0.118324000000000 255 0 0
0.387008000000000 0.121627000000000 -0.115584000000000 255 0 0
0.379519000000000 0.127449000000000 -0.107925000000000 255 0 0
0.431919000000000 0.108250000000000 -0.110638000000000 255 0 0
0.378895000000000 0.111036000000000 -0.112781000000000 255 0 0
0.431398000000000 0.093612000000000 -0.112515000000000 255 0 0
0.371989000000000 0.093227000000000 -0.113520000000000 255 0 0
0.429279000000000 0.078965000000000 -0.112986000000000 255 0 0
0.366675000000000 0.077596000000000 -0.114166000000000 255 0 0
0.427249000000000 0.062973000000000 -0.113145000000000 255 0 0
0.362491000000000 0.061977000000000 -0.114735000000000 255 0 0
0.426159000000000 0.046457000000000 -0.114003000000000 255 0 0
0.358659000000000 0.045795000000000 -0.114658000000000 255 0 0
0.426070000000000 0.029931000000000 -0.114948000000000 255 0 0
0.353140000000000 0.027323000000000 -0.112502000000000 255 0 0
0.427389000000000 0.013278000000000 -0.115731000000000 255 0 0
0.346094000000000 0.010665000000000 -0.117089000000000 255 0 0
0.429451000000000 -0.004776000000000 -0.118032000000000 255 0 0
0.336896000000000 -0.000182000000000 -0.110353000000000 255 0 0
0.325606000000000 -0.009023000000000 -0.114626000000000 255 0 0
0.422563000000000 0.104905000000000 -0.118241000000000 255 0 0
0.409649000000000 0.107542000000000 -0.122053000000000 255 0 0
0.394095000000000 0.108119000000000 -0.121152000000000 255 0 0
0.419733000000000 0.092731000000000 -0.120846000000000 255 0 0
0.405246000000000 0.092461000000000 -0.125237000000000 255 0 0
0.388155000000000 0.090416000000000 -0.123857000000000 255 0 0
0.417635000000000 0.077533000000000 -0.122446000000000 255 0 0
0.403411000000000 0.076035000000000 -0.128107000000000 255 0 0
0.390908000000000 0.072907000000000 -0.129904000000000 255 0 0
0.378279000000000 0.076532000000000 -0.124730000000000 255 0 0
0.416451000000000 0.061219000000000 -0.124174000000000 255 0 0
0.402018000000000 0.058046000000000 -0.132482000000000 255 0 0
0.385194000000000 0.060549000000000 -0.133051000000000 255 0 0
0.371584000000000 0.061679000000000 -0.126406000000000 255 0 0
0.416894000000000 0.044619000000000 -0.126338000000000 255 0 0
0.366630000000000 0.045923000000000 -0.128196000000000 255 0 0
0.417790000000000 0.026652000000000 -0.129926000000000 255 0 0
0.360564000000000 0.030171000000000 -0.128699000000000 255 0 0
0.423265000000000 0.009965000000000 -0.128204000000000 255 0 0
0.352803000000000 0.014664000000000 -0.129444000000000 255 0 0
0.429976000000000 -0.020813000000000 -0.128655000000000 255 0 0
0.422847000000000 -0.002956000000000 -0.135722000000000 255 0 0
0.340490000000000 -0.000903000000000 -0.128340000000000 255 0 0
0.324921000000000 -0.011578000000000 -0.130995000000000 255 0 0
0.407138000000000 0.041391000000000 -0.134890000000000 255 0 0
0.394009000000000 0.044719000000000 -0.138553000000000 255 0 0
0.379077000000000 0.045600000000000 -0.136573000000000 255 0 0
0.413843000000000 0.012844000000000 -0.139410000000000 255 0 0
0.403683000000000 0.028637000000000 -0.140818000000000 255 0 0
0.388140000000000 0.029245000000000 -0.144122000000000 255 0 0
0.371844000000000 0.028100000000000 -0.140415000000000 255 0 0
0.399379000000000 0.011031000000000 -0.149978000000000 255 0 0
0.381568000000000 0.013119000000000 -0.150787000000000 255 0 0
0.368504000000000 0.012194000000000 -0.147469000000000 255 0 0
0.362045000000000 0.017764000000000 -0.139083000000000 255 0 0
0.413169000000000 -0.002499000000000 -0.149569000000000 255 0 0
0.355759000000000 0.002503000000000 -0.145120000000000 255 0 0
0.339568000000000 -0.010014000000000 -0.146570000000000 255 0 0
0.323332000000000 -0.015579000000000 -0.147008000000000 255 0 0
0.403587000000000 -0.005065000000000 -0.158318000000000 255 0 0
0.388615000000000 -0.003989000000000 -0.161413000000000 255 0 0
0.370879000000000 -0.000858000000000 -0.156330000000000 255 0 0
