ply
format ascii 1.0
element vertex 756
property double x
property double y
property double z
property uchar red
property uchar green
property uchar blue
end_header
0.428129000000000 -0.544849000000000 0.116192000000000 255 0 0
0.333906000000000 -0.547960000000000 0.099814000000000 255 0 0
0.436128000000000 -0.562412000000000 0.116257000000000 255 0 0
0.333901000000000 -0.564101000000000 0.101764000000000 255 0 0
0.337399000000000 -0.583529000000000 0.112771000000000 255 0 0
0.332896000000000 -0.580254000000000 0.102043000000000 255 0 0
0.445400000000000 -0.594853000000000 0.116838000000000 255 0 0
0.338328000000000 -0.595600000000000 0.115543000000000 255 0 0
0.332666000000000 -0.595475000000000 0.102237000000000 255 0 0
0.455878000000000 -0.614563000000000 0.106982000000000 255 0 0
0.450049000000000 -0.610764000000000 0.117670000000000 255 0 0
0.339561000000000 -0.609841000000000 0.117486000000000 255 0 0
0.334007000000000 -0.609865000000000 0.104011000000000 255 0 0
0.453502000000000 -0.626478000000000 0.118744000000000 255 0 0
0.341353000000000 -0.625037000000000 0.117695000000000 255 0 0
0.343565000000000 -0.641041000000000 0.117765000000000 255 0 0
0.458845000000000 -0.657430000000000 0.117970000000000 255 0 0
0.460010000000000 -0.672925000000000 0.118086000000000 255 0 0
0.349953000000000 -0.671216000000000 0.118827000000000 255 0 0
0.460842000000000 -0.688569000000000 0.117904000000000 255 0 0
0.353500000000000 -0.686972000000000 0.118115000000000 255 0 0
0.350086000000000 -0.681985000000000 0.104268000000000 255 0 0
0.461140000000000 -0.703497000000000 0.116447000000000 255 0 0
0.358199000000000 -0.702545000000000 0.119572000000000 255 0 0
0.460350000000000 -0.715052000000000 0.113314000000000 255 0 0
0.361605000000000 -0.714605000000000 0.123446000000000 255 0 0
0.454934000000000 -0.728155000000000 0.115690000000000 255 0 0
0.445237000000000 -0.743705000000000 0.115201000000000 255 0 0
0.377321000000000 -0.743462000000000 0.121285000000000 255 0 0
0.433084000000000 -0.754563000000000 0.118188000000000 255 0 0
0.418764000000000 -0.759451000000000 0.118665000000000 255 0 0
0.403737000000000 -0.759557000000000 0.118496000000000 255 0 0
0.389532000000000 -0.754596000000000 0.118352000000000 255 0 0
0.368652000000000 -0.364533000000000 0.078749000000000 255 0 0
0.352985000000000 -0.365432000000000 0.078447000000000 255 0 0
0.380685000000000 -0.377148000000000 0.079799000000000 255 0 0
0.367128000000000 -0.380640000000000 0.084015000000000 255 0 0
0.355013000000000 -0.378129000000000 0.082421000000000 255 0 0
0.340971000000000 -0.377554000000000 0.076405000000000 255 0 0
0.371850000000000 -0.393442000000000 0.086269000000000 255 0 0
0.356565000000000 -0.393185000000000 0.085783000000000 255 0 0
0.342090000000000 -0.392763000000000 0.080688000000000 255 0 0
0.397922000000000 -0.404304000000000 0.079136000000000 255 0 0
0.389678000000000 -0.410201000000000 0.086795000000000 255 0 0
0.376687000000000 -0.408845000000000 0.089856000000000 255 0 0
0.358892000000000 -0.410759000000000 0.090179000000000 255 0 0
0.343632000000000 -0.408171000000000 0.084641000000000 255 0 0
0.331704000000000 -0.408469000000000 0.075910000000000 255 0 0
0.343572000000000 -0.424051000000000 0.087569000000000 255 0 0
0.333035000000000 -0.423306000000000 0.078983000000000 255 0 0
0.387952000000000 -0.441475000000000 0.095503000000000 255 0 0
0.343114000000000 -0.439335000000000 0.090418000000000 255 0 0
0.333740000000000 -0.438739000000000 0.080665000000000 255 0 0
0.411069000000000 -0.455007000000000 0.084971000000000 255 0 0
0.334055000000000 -0.454234000000000 0.082395000000000 255 0 0
0.406293000000000 -0.470362000000000 0.097601000000000 255 0 0
0.334141000000000 -0.469791000000000 0.083742000000000 255 0 0
0.424329000000000 -0.486552000000000 0.087214000000000 255 0 0
0.334121000000000 -0.485621000000000 0.084673000000000 255 0 0
0.421856000000000 -0.501178000000000 0.100222000000000 255 0 0
0.333747000000000 -0.502203000000000 0.086297000000000 255 0 0
0.338583000000000 -0.520312000000000 0.101887000000000 255 0 0
0.332095000000000 -0.520616000000000 0.088045000000000 255 0 0
0.441281000000000 -0.537034000000000 0.090683000000000 255 0 0
0.435296000000000 -0.532494000000000 0.101477000000000 255 0 0
0.444557000000000 -0.563828000000000 0.102790000000000 255 0 0
0.448577000000000 -0.579782000000000 0.102107000000000 255 0 0
0.453110000000000 -0.597953000000000 0.100764000000000 255 0 0
0.459410000000000 -0.626999000000000 0.104826000000000 255 0 0
0.336307000000000 -0.621998000000000 0.106843000000000 255 0 0
0.461713000000000 -0.641960000000000 0.103456000000000 255 0 0
0.338666000000000 -0.638404000000000 0.101390000000000 255 0 0
0.462626000000000 -0.657517000000000 0.102934000000000 255 0 0
0.342923000000000 -0.655932000000000 0.104416000000000 255 0 0
0.462698000000000 -0.673161000000000 0.102934000000000 255 0 0
0.345551000000000 -0.668120000000000 0.107851000000000 255 0 0
0.462119000000000 -0.688631000000000 0.102616000000000 255 0 0
0.460209000000000 -0.703497000000000 0.101920000000000 255 0 0
0.356070000000000 -0.700507000000000 0.102144000000000 255 0 0
0.456437000000000 -0.718210000000000 0.101883000000000 255 0 0
0.361674000000000 -0.717039000000000 0.109896000000000 255 0 0
0.450575000000000 -0.732808000000000 0.102231000000000 255 0 0
0.370096000000000 -0.732325000000000 0.105248000000000 255 0 0
0.442258000000000 -0.743707000000000 0.100778000000000 255 0 0
0.382667000000000 -0.746265000000000 0.104004000000000 255 0 0
0.436254000000000 -0.751470000000000 0.106069000000000 255 0 0
0.424302000000000 -0.756363000000000 0.104595000000000 255 0 0
0.409847000000000 -0.758363000000000 0.104463000000000 255 0 0
0.395788000000000 -0.755280000000000 0.104145000000000 255 0 0
0.351620000000000 -0.267749000000000 0.062210000000000 255 0 0
0.337087000000000 -0.270726000000000 0.062117000000000 255 0 0
0.339734000000000 -0.283439000000000 0.065105000000000 255 0 0
0.325215000000000 -0.282958000000000 0.059774000000000 255 0 0
0.367318000000000 -0.299263000000000 0.064354000000000 255 0 0
0.352593000000000 -0.302025000000000 0.068324000000000 255 0 0
0.340411000000000 -0.298934000000000 0.066943000000000 255 0 0
0.325966000000000 -0.298093000000000 0.061709000000000 255 0 0
0.355506000000000 -0.314978000000000 0.068929000000000 255 0 0
0.340569000000000 -0.314246000000000 0.068035000000000 255 0 0
0.326643000000000 -0.313588000000000 0.062760000000000 255 0 0
0.382519000000000 -0.330295000000000 0.065022000000000 255 0 0
0.369896000000000 -0.334155000000000 0.070585000000000 255 0 0
0.356678000000000 -0.330974000000000 0.070760000000000 255 0 0
0.341445000000000 -0.329505000000000 0.068751000000000 255 0 0
0.327320000000000 -0.329083000000000 0.062956000000000 255 0 0
0.376569000000000 -0.346397000000000 0.072122000000000 255 0 0
0.358541000000000 -0.349059000000000 0.074577000000000 255 0 0
0.341981000000000 -0.345575000000000 0.070265000000000 255 0 0
0.328120000000000 -0.344702000000000 0.063443000000000 255 0 0
0.396427000000000 -0.356042000000000 0.063678000000000 255 0 0
0.385802000000000 -0.360080000000000 0.072688000000000 255 0 0
0.341422000000000 -0.361802000000000 0.073313000000000 255 0 0
0.328385000000000 -0.360557000000000 0.064541000000000 255 0 0
0.328170000000000 -0.376734000000000 0.066642000000000 255 0 0
0.388899000000000 -0.393884000000000 0.081103000000000 255 0 0
0.327859000000000 -0.394785000000000 0.069585000000000 255 0 0
0.409984000000000 -0.422453000000000 0.070775000000000 255 0 0
0.397817000000000 -0.420855000000000 0.083992000000000 255 0 0
0.404665000000000 -0.438788000000000 0.084606000000000 255 0 0
0.425125000000000 -0.474711000000000 0.075161000000000 255 0 0
0.418142000000000 -0.471110000000000 0.086165000000000 255 0 0
0.430518000000000 -0.502025000000000 0.086454000000000 255 0 0
0.437056000000000 -0.520117000000000 0.084376000000000 255 0 0
0.328266000000000 -0.536497000000000 0.082990000000000 255 0 0
0.445705000000000 -0.549909000000000 0.089171000000000 255 0 0
0.328579000000000 -0.548594000000000 0.085149000000000 255 0 0
0.448594000000000 -0.564759000000000 0.088197000000000 255 0 0
0.328906000000000 -0.563505000000000 0.086902000000000 255 0 0
0.451342000000000 -0.580254000000000 0.086136000000000 255 0 0
0.328910000000000 -0.578677000000000 0.088133000000000 255 0 0
0.458258000000000 -0.611715000000000 0.093350000000000 255 0 0
0.454786000000000 -0.595624000000000 0.082179000000000 255 0 0
0.329570000000000 -0.593911000000000 0.087990000000000 255 0 0
0.331304000000000 -0.609617000000000 0.088950000000000 255 0 0
0.461101000000000 -0.626341000000000 0.089409000000000 255 0 0
0.334237000000000 -0.624678000000000 0.093217000000000 255 0 0
0.462098000000000 -0.641811000000000 0.087787000000000 255 0 0
0.338809000000000 -0.640140000000000 0.082548000000000 255 0 0
0.461281000000000 -0.657579000000000 0.087290000000000 255 0 0
0.342888000000000 -0.656168000000000 0.087928000000000 255 0 0
0.459545000000000 -0.673372000000000 0.087464000000000 255 0 0
0.346599000000000 -0.671432000000000 0.094211000000000 255 0 0
0.457446000000000 -0.689078000000000 0.087696000000000 255 0 0
0.354113000000000 -0.689569000000000 0.087209000000000 255 0 0
0.454442000000000 -0.704875000000000 0.087882000000000 255 0 0
0.358643000000000 -0.703358000000000 0.088915000000000 255 0 0
0.449428000000000 -0.720672000000000 0.088664000000000 255 0 0
0.365124000000000 -0.716467000000000 0.091842000000000 255 0 0
0.442283000000000 -0.734577000000000 0.089580000000000 255 0 0
0.378154000000000 -0.733016000000000 0.089426000000000 255 0 0
0.431083000000000 -0.746674000000000 0.092125000000000 255 0 0
0.415002000000000 -0.752153000000000 0.091381000000000 255 0 0
0.402615000000000 -0.753318000000000 0.093274000000000 255 0 0
0.391207000000000 -0.745574000000000 0.090009000000000 255 0 0
0.340553000000000 -0.195646000000000 0.047165000000000 255 0 0
0.352248000000000 -0.208204000000000 0.049428000000000 255 0 0
0.336734000000000 -0.209572000000000 0.051550000000000 255 0 0
0.324806000000000 -0.205927000000000 0.048085000000000 255 0 0
0.364971000000000 -0.220665000000000 0.048788000000000 255 0 0
0.351335000000000 -0.224222000000000 0.053760000000000 255 0 0
0.339025000000000 -0.221683000000000 0.053600000000000 255 0 0
0.324532000000000 -0.220726000000000 0.051240000000000 255 0 0
0.310213000000000 -0.219808000000000 0.044778000000000 255 0 0
0.356215000000000 -0.236855000000000 0.054839000000000 255 0 0
0.340487000000000 -0.236685000000000 0.055770000000000 255 0 0
0.325238000000000 -0.235667000000000 0.053086000000000 255 0 0
0.310517000000000 -0.235220000000000 0.046589000000000 255 0 0
0.381057000000000 -0.250628000000000 0.048662000000000 255 0 0
0.372071000000000 -0.250870000000000 0.054184000000000 255 0 0
0.361487000000000 -0.251584000000000 0.057204000000000 255 0 0
0.342872000000000 -0.254193000000000 0.058961000000000 255 0 0
0.325989000000000 -0.251521000000000 0.054719000000000 255 0 0
0.311173000000000 -0.250839000000000 0.047727000000000 255 0 0
0.369883000000000 -0.264502000000000 0.057559000000000 255 0 0
0.325610000000000 -0.267612000000000 0.057409000000000 255 0 0
0.311800000000000 -0.266632000000000 0.048836000000000 255 0 0
0.376606000000000 -0.281661000000000 0.057626000000000 255 0 0
0.357466000000000 -0.285026000000000 0.064545000000000 255 0 0
0.312302000000000 -0.282300000000000 0.050565000000000 255 0 0
0.312834000000000 -0.297795000000000 0.052208000000000 255 0 0
0.394335000000000 -0.309971000000000 0.049376000000000 255 0 0
0.387318000000000 -0.316256000000000 0.058610000000000 255 0 0
0.372885000000000 -0.317142000000000 0.065522000000000 255 0 0
0.313602000000000 -0.313265000000000 0.052976000000000 255 0 0
0.315245000000000 -0.328760000000000 0.053218000000000 255 0 0
0.390560000000000 -0.343820000000000 0.064450000000000 255 0 0
0.316975000000000 -0.344429000000000 0.053069000000000 255 0 0
0.318011000000000 -0.360222000000000 0.053334000000000 255 0 0
0.408474000000000 -0.375616000000000 0.055450000000000 255 0 0
0.396512000000000 -0.373253000000000 0.069010000000000 255 0 0
0.318498000000000 -0.375965000000000 0.054259000000000 255 0 0
0.403176000000000 -0.390868000000000 0.069311000000000 255 0 0
0.318454000000000 -0.391820000000000 0.055382000000000 255 0 0
0.407456000000000 -0.406330000000000 0.069894000000000 255 0 0
0.322885000000000 -0.411064000000000 0.065961000000000 255 0 0
0.318415000000000 -0.407170000000000 0.055918000000000 255 0 0
0.324954000000000 -0.423252000000000 0.067883000000000 255 0 0
0.414692000000000 -0.439065000000000 0.070523000000000 255 0 0
0.326963000000000 -0.438321000000000 0.068901000000000 255 0 0
0.420811000000000 -0.457669000000000 0.068831000000000 255 0 0
0.327923000000000 -0.454085000000000 0.069847000000000 255 0 0
0.328347000000000 -0.469704000000000 0.070503000000000 255 0 0
0.430274000000000 -0.487520000000000 0.073258000000000 255 0 0
0.328471000000000 -0.485199000000000 0.070962000000000 255 0 0
0.434121000000000 -0.502510000000000 0.071141000000000 255 0 0
0.328699000000000 -0.501054000000000 0.071299000000000 255 0 0
0.442510000000000 -0.535987000000000 0.074529000000000 255 0 0
0.437532000000000 -0.517091000000000 0.065215000000000 255 0 0
0.328405000000000 -0.517334000000000 0.072044000000000 255 0 0
0.327623000000000 -0.532854000000000 0.072127000000000 255 0 0
0.446958000000000 -0.552435000000000 0.077012000000000 255 0 0
0.327623000000000 -0.547522000000000 0.071113000000000 255 0 0
0.448802000000000 -0.565028000000000 0.072867000000000 255 0 0
0.328426000000000 -0.562955000000000 0.071428000000000 255 0 0
0.450795000000000 -0.580394000000000 0.070238000000000 255 0 0
0.328724000000000 -0.578317000000000 0.073368000000000 255 0 0
0.457188000000000 -0.610279000000000 0.076956000000000 255 0 0
0.452745000000000 -0.594697000000000 0.066465000000000 255 0 0
0.328887000000000 -0.590591000000000 0.076156000000000 255 0 0
0.333029000000000 -0.606985000000000 0.071769000000000 255 0 0
0.458216000000000 -0.625860000000000 0.073256000000000 255 0 0
0.335828000000000 -0.624748000000000 0.076867000000000 255 0 0
0.457260000000000 -0.642109000000000 0.072263000000000 255 0 0
0.341610000000000 -0.638221000000000 0.068850000000000 255 0 0
0.455009000000000 -0.658337000000000 0.072168000000000 255 0 0
0.347748000000000 -0.654633000000000 0.070071000000000 255 0 0
0.452670000000000 -0.674490000000000 0.073181000000000 255 0 0
0.351137000000000 -0.672479000000000 0.077890000000000 255 0 0
0.448981000000000 -0.690270000000000 0.074055000000000 255 0 0
0.362087000000000 -0.688321000000000 0.070356000000000 255 0 0
0.442501000000000 -0.707737000000000 0.074285000000000 255 0 0
0.363897000000000 -0.703765000000000 0.079047000000000 255 0 0
0.441011000000000 -0.723676000000000 0.079647000000000 255 0 0
0.431635000000000 -0.719624000000000 0.070388000000000 255 0 0
0.375065000000000 -0.718092000000000 0.076445000000000 255 0 0
0.432138000000000 -0.733601000000000 0.079276000000000 255 0 0
0.422075000000000 -0.729390000000000 0.071517000000000 255 0 0
0.408748000000000 -0.731181000000000 0.070933000000000 255 0 0
0.391022000000000 -0.730556000000000 0.075582000000000 255 0 0
0.419129000000000 -0.740916000000000 0.079840000000000 255 0 0
0.404200000000000 -0.743797000000000 0.082199000000000 255 0 0
0.316433000000000 -0.117693000000000 0.057683000000000 255 0 0
0.297314000000000 -0.117062000000000 0.053472000000000 255 0 0
0.279141000000000 -0.112322000000000 0.055237000000000 255 0 0
0.262938000000000 -0.110470000000000 0.055941000000000 255 0 0
0.336816000000000 -0.127448000000000 0.047389000000000 255 0 0
0.322873000000000 -0.124886000000000 0.049044000000000 255 0 0
0.321100000000000 -0.139351000000000 0.040102000000000 255 0 0
0.354473000000000 -0.160228000000000 0.035568000000000 255 0 0
0.338011000000000 -0.162083000000000 0.039312000000000 255 0 0
0.324269000000000 -0.157745000000000 0.038295000000000 255 0 0
0.308250000000000 -0.156669000000000 0.032592000000000 255 0 0
0.366356000000000 -0.172466000000000 0.033256000000000 255 0 0
0.355995000000000 -0.173858000000000 0.038852000000000 255 0 0
0.342924000000000 -0.176995000000000 0.041765000000000 255 0 0
0.325277000000000 -0.174167000000000 0.039952000000000 255 0 0
0.310047000000000 -0.172793000000000 0.034938000000000 255 0 0
0.357924000000000 -0.187607000000000 0.041909000000000 255 0 0
0.325613000000000 -0.190171000000000 0.044054000000000 255 0 0
0.310424000000000 -0.188557000000000 0.038384000000000 255 0 0
0.297019000000000 -0.188412000000000 0.029388000000000 255 0 0
0.381225000000000 -0.199886000000000 0.032723000000000 255 0 0
0.369880000000000 -0.203306000000000 0.041941000000000 255 0 0
0.310362000000000 -0.204284000000000 0.041943000000000 255 0 0
0.297060000000000 -0.203845000000000 0.032538000000000 255 0 0
0.297060000000000 -0.219489000000000 0.034928000000000 255 0 0
0.373004000000000 -0.237392000000000 0.049519000000000 255 0 0
0.297277000000000 -0.235133000000000 0.036594000000000 255 0 0
0.392423000000000 -0.250541000000000 0.037839000000000 255 0 0
0.297958000000000 -0.250690000000000 0.037332000000000 255 0 0
0.385260000000000 -0.265406000000000 0.048919000000000 255 0 0
0.299601000000000 -0.266185000000000 0.037864000000000 255 0 0
0.389013000000000 -0.278421000000000 0.048271000000000 255 0 0
0.301331000000000 -0.281853000000000 0.038367000000000 255 0 0
0.386216000000000 -0.297615000000000 0.053660000000000 255 0 0
0.302440000000000 -0.297646000000000 0.038994000000000 255 0 0
0.303781000000000 -0.313178000000000 0.039881000000000 255 0 0
0.394935000000000 -0.326463000000000 0.053655000000000 255 0 0
0.400187000000000 -0.343580000000000 0.053444000000000 255 0 0
0.411146000000000 -0.362018000000000 0.041013000000000 255 0 0
0.404757000000000 -0.359521000000000 0.054411000000000 255 0 0
0.411994000000000 -0.391360000000000 0.055618000000000 255 0 0
0.414620000000000 -0.407004000000000 0.055829000000000 255 0 0
0.416977000000000 -0.422921000000000 0.055734000000000 255 0 0
0.319507000000000 -0.421609000000000 0.055467000000000 255 0 0
0.419235000000000 -0.438953000000000 0.054322000000000 255 0 0
0.322133000000000 -0.436868000000000 0.054748000000000 255 0 0
0.319311000000000 -0.431220000000000 0.040634000000000 255 0 0
0.426686000000000 -0.473348000000000 0.058821000000000 255 0 0
0.422182000000000 -0.454026000000000 0.049211000000000 255 0 0
0.325140000000000 -0.453319000000000 0.054831000000000 255 0 0
0.326319000000000 -0.469431000000000 0.055846000000000 255 0 0
0.431637000000000 -0.489830000000000 0.060841000000000 255 0 0
0.326766000000000 -0.484603000000000 0.056808000000000 255 0 0
0.433576000000000 -0.501787000000000 0.055655000000000 255 0 0
0.327615000000000 -0.499887000000000 0.056412000000000 255 0 0
0.434952000000000 -0.513860000000000 0.051340000000000 255 0 0
0.328554000000000 -0.516102000000000 0.056427000000000 255 0 0
0.443985000000000 -0.548904000000000 0.062451000000000 255 0 0
0.438379000000000 -0.529847000000000 0.053809000000000 255 0 0
0.328538000000000 -0.531658000000000 0.058020000000000 255 0 0
0.328266000000000 -0.543879000000000 0.060240000000000 255 0 0
0.444966000000000 -0.566313000000000 0.055581000000000 255 0 0
0.332095000000000 -0.559859000000000 0.055117000000000 255 0 0
0.449058000000000 -0.582413000000000 0.058307000000000 255 0 0
0.333511000000000 -0.578347000000000 0.057696000000000 255 0 0
0.448825000000000 -0.591677000000000 0.054233000000000 255 0 0
0.333059000000000 -0.593577000000000 0.062916000000000 255 0 0
0.451707000000000 -0.607990000000000 0.058950000000000 255 0 0
0.338766000000000 -0.607540000000000 0.056251000000000 255 0 0
0.451548000000000 -0.626733000000000 0.057817000000000 255 0 0
0.344041000000000 -0.625801000000000 0.058039000000000 255 0 0
0.448257000000000 -0.643035000000000 0.057567000000000 255 0 0
0.349165000000000 -0.643939000000000 0.059671000000000 255 0 0
0.442847000000000 -0.661131000000000 0.057930000000000 255 0 0
0.358662000000000 -0.656755000000000 0.055227000000000 255 0 0
0.443610000000000 -0.677809000000000 0.063710000000000 255 0 0
0.432824000000000 -0.674531000000000 0.054106000000000 255 0 0
0.359750000000000 -0.671886000000000 0.062964000000000 255 0 0
0.437326000000000 -0.690437000000000 0.063025000000000 255 0 0
0.420815000000000 -0.689846000000000 0.054425000000000 255 0 0
0.391567000000000 -0.689933000000000 0.052354000000000 255 0 0
0.375446000000000 -0.686000000000000 0.057217000000000 255 0 0
0.428552000000000 -0.704655000000000 0.062928000000000 255 0 0
0.418439000000000 -0.703371000000000 0.058074000000000 255 0 0
0.405653000000000 -0.700976000000000 0.055906000000000 255 0 0
0.388149000000000 -0.702963000000000 0.058972000000000 255 0 0
0.374115000000000 -0.703198000000000 0.066732000000000 255 0 0
0.416644000000000 -0.716010000000000 0.063688000000000 255 0 0
0.398940000000000 -0.717244000000000 0.063836000000000 255 0 0
0.385091000000000 -0.715295000000000 0.066590000000000 255 0 0
0.278640000000000 -0.117693000000000 0.038464000000000 255 0 0
0.263000000000000 -0.112063000000000 0.039966000000000 255 0 0
0.357321000000000 -0.126026000000000 0.043266000000000 255 0 0
0.308925000000000 -0.127174000000000 0.044455000000000 255 0 0
0.292551000000000 -0.127694000000000 0.035254000000000 255 0 0
0.362539000000000 -0.141247000000000 0.032038000000000 255 0 0
0.342256000000000 -0.144332000000000 0.039011000000000 255 0 0
0.302612000000000 -0.141141000000000 0.033314000000000 255 0 0
0.288470000000000 -0.141576000000000 0.021419000000000 255 0 0
0.294266000000000 -0.157298000000000 0.022210000000000 255 0 0
0.379240000000000 -0.172461000000000 0.021936000000000 255 0 0
0.296356000000000 -0.173153000000000 0.025651000000000 255 0 0
0.374680000000000 -0.187314000000000 0.033230000000000 255 0 0
0.287057000000000 -0.189393000000000 0.017063000000000 255 0 0
0.287189000000000 -0.204081000000000 0.020765000000000 255 0 0
0.393693000000000 -0.219120000000000 0.024336000000000 255 0 0
0.381441000000000 -0.216910000000000 0.037877000000000 255 0 0
0.287210000000000 -0.219489000000000 0.022470000000000 255 0 0
0.388270000000000 -0.234996000000000 0.037869000000000 255 0 0
0.287282000000000 -0.235133000000000 0.023412000000000 255 0 0
0.288137000000000 -0.250603000000000 0.024237000000000 255 0 0
0.395223000000000 -0.265663000000000 0.037934000000000 255 0 0
0.396284000000000 -0.281350000000000 0.038601000000000 255 0 0
0.397977000000000 -0.296962000000000 0.038954000000000 255 0 0
0.400354000000000 -0.312463000000000 0.038979000000000 255 0 0
0.402746000000000 -0.328963000000000 0.038994000000000 255 0 0
0.305753000000000 -0.328164000000000 0.040657000000000 255 0 0
0.410426000000000 -0.351067000000000 0.025494000000000 255 0 0
0.406897000000000 -0.345898000000000 0.039499000000000 255 0 0
0.308190000000000 -0.343373000000000 0.040202000000000 255 0 0
0.311091000000000 -0.359402000000000 0.039544000000000 255 0 0
0.414817000000000 -0.376879000000000 0.041373000000000 255 0 0
0.312703000000000 -0.375419000000000 0.040009000000000 255 0 0
0.416708000000000 -0.391745000000000 0.040678000000000 255 0 0
0.313419000000000 -0.390653000000000 0.041307000000000 255 0 0
0.417578000000000 -0.407215000000000 0.040359000000000 255 0 0
0.314304000000000 -0.405294000000000 0.042456000000000 255 0 0
0.418498000000000 -0.422834000000000 0.039920000000000 255 0 0
0.315668000000000 -0.417415000000000 0.044586000000000 255 0 0
0.419552000000000 -0.437919000000000 0.038277000000000 255 0 0
0.420178000000000 -0.450124000000000 0.035053000000000 255 0 0
0.324439000000000 -0.450379000000000 0.037355000000000 255 0 0
0.428399000000000 -0.485965000000000 0.046526000000000 255 0 0
0.422974000000000 -0.466602000000000 0.037971000000000 255 0 0
0.327301000000000 -0.468657000000000 0.040255000000000 255 0 0
0.328256000000000 -0.484417000000000 0.042353000000000 255 0 0
0.429335000000000 -0.502894000000000 0.039387000000000 255 0 0
0.328504000000000 -0.496847000000000 0.044776000000000 255 0 0
0.433544000000000 -0.518682000000000 0.042683000000000 255 0 0
0.332946000000000 -0.513615000000000 0.039922000000000 255 0 0
0.433426000000000 -0.529087000000000 0.039147000000000 255 0 0
0.333699000000000 -0.531969000000000 0.042829000000000 255 0 0
0.437401000000000 -0.545915000000000 0.043673000000000 255 0 0
0.332997000000000 -0.546633000000000 0.047531000000000 255 0 0
0.443414000000000 -0.579161000000000 0.046836000000000 255 0 0
0.437346000000000 -0.563409000000000 0.038753000000000 255 0 0
0.338583000000000 -0.560128000000000 0.040725000000000 255 0 0
0.343485000000000 -0.576695000000000 0.041224000000000 255 0 0
0.442770000000000 -0.594143000000000 0.043873000000000 255 0 0
0.343520000000000 -0.596847000000000 0.047088000000000 255 0 0
0.441457000000000 -0.612419000000000 0.043334000000000 255 0 0
0.357908000000000 -0.611397000000000 0.037633000000000 255 0 0
0.347839000000000 -0.613824000000000 0.047652000000000 255 0 0
0.442629000000000 -0.629524000000000 0.047241000000000 255 0 0
0.434087000000000 -0.623239000000000 0.038094000000000 255 0 0
0.358130000000000 -0.626675000000000 0.043025000000000 255 0 0
0.432550000000000 -0.641873000000000 0.043174000000000 255 0 0
0.372106000000000 -0.640809000000000 0.038977000000000 255 0 0
0.358420000000000 -0.641958000000000 0.049307000000000 255 0 0
0.429998000000000 -0.660343000000000 0.047446000000000 255 0 0
0.420773000000000 -0.653731000000000 0.040389000000000 255 0 0
0.407093000000000 -0.654972000000000 0.037734000000000 255 0 0
0.388710000000000 -0.653584000000000 0.038465000000000 255 0 0
0.372051000000000 -0.656471000000000 0.045759000000000 255 0 0
0.416956000000000 -0.669526000000000 0.045610000000000 255 0 0
0.400709000000000 -0.667529000000000 0.042285000000000 255 0 0
0.385892000000000 -0.673029000000000 0.046917000000000 255 0 0
0.369918000000000 -0.669298000000000 0.052429000000000 255 0 0
0.403930000000000 -0.682363000000000 0.048653000000000 255 0 0
0.262553000000000 -0.115649000000000 0.023664000000000 255 0 0
0.374588000000000 -0.126896000000000 0.030677000000000 255 0 0
0.276716000000000 -0.126506000000000 0.020285000000000 255 0 0
0.375669000000000 -0.137698000000000 0.021725000000000 255 0 0
0.279071000000000 -0.141320000000000 0.006628000000000 255 0 0
0.372714000000000 -0.154341000000000 0.023430000000000 255 0 0
0.284408000000000 -0.157323000000000 0.008372000000000 255 0 0
0.285580000000000 -0.175771000000000 0.009889000000000 255 0 0
0.392609000000000 -0.192224000000000 0.012637000000000 255 0 0
0.385789000000000 -0.188437000000000 0.022638000000000 255 0 0
0.390620000000000 -0.203538000000000 0.023976000000000 255 0 0
0.397619000000000 -0.235071000000000 0.024157000000000 255 0 0
0.399920000000000 -0.250690000000000 0.024107000000000 255 0 0
0.400876000000000 -0.266247000000000 0.024223000000000 255 0 0
0.290109000000000 -0.265589000000000 0.025014000000000 255 0 0
0.401557000000000 -0.281891000000000 0.024368000000000 255 0 0
0.292547000000000 -0.280798000000000 0.024631000000000 255 0 0
0.402331000000000 -0.297534000000000 0.024306000000000 255 0 0
0.295448000000000 -0.296827000000000 0.024190000000000 255 0 0
0.403594000000000 -0.313547000000000 0.023830000000000 255 0 0
0.297740000000000 -0.312930000000000 0.025003000000000 255 0 0
0.406092000000000 -0.331472000000000 0.021370000000000 255 0 0
0.299866000000000 -0.328102000000000 0.026545000000000 255 0 0
0.302960000000000 -0.340319000000000 0.029061000000000 255 0 0
0.414374000000000 -0.365175000000000 0.029607000000000 255 0 0
0.306334000000000 -0.356155000000000 0.023452000000000 255 0 0
0.415552000000000 -0.376755000000000 0.026660000000000 255 0 0
0.310616000000000 -0.374003000000000 0.024734000000000 255 0 0
0.416129000000000 -0.391658000000000 0.025153000000000 255 0 0
0.312657000000000 -0.390082000000000 0.026476000000000 255 0 0
0.416309000000000 -0.407426000000000 0.024889000000000 255 0 0
0.313130000000000 -0.402631000000000 0.030442000000000 255 0 0
0.416520000000000 -0.423045000000000 0.024889000000000 255 0 0
0.316917000000000 -0.418501000000000 0.029206000000000 255 0 0
0.416756000000000 -0.438329000000000 0.024243000000000 255 0 0
0.323963000000000 -0.439107000000000 0.023163000000000 255 0 0
0.417809000000000 -0.453377000000000 0.024516000000000 255 0 0
0.327344000000000 -0.452976000000000 0.024196000000000 255 0 0
0.418522000000000 -0.465985000000000 0.023740000000000 255 0 0
0.332276000000000 -0.466603000000000 0.023690000000000 255 0 0
0.421705000000000 -0.482488000000000 0.028397000000000 255 0 0
0.333861000000000 -0.484525000000000 0.027898000000000 255 0 0
0.427472000000000 -0.516586000000000 0.031250000000000 255 0 0
0.420964000000000 -0.500127000000000 0.023548000000000 255 0 0
0.333968000000000 -0.499825000000000 0.032305000000000 255 0 0
0.343785000000000 -0.516126000000000 0.024048000000000 255 0 0
0.426394000000000 -0.533905000000000 0.027892000000000 255 0 0
0.343656000000000 -0.532205000000000 0.028942000000000 255 0 0
0.430832000000000 -0.550574000000000 0.031534000000000 255 0 0
0.420905000000000 -0.547999000000000 0.022697000000000 255 0 0
0.356552000000000 -0.547700000000000 0.021681000000000 255 0 0
0.343457000000000 -0.550011000000000 0.033238000000000 255 0 0
0.428416000000000 -0.560962000000000 0.028969000000000 255 0 0
0.417134000000000 -0.565548000000000 0.022759000000000 255 0 0
0.357647000000000 -0.563339000000000 0.025131000000000 255 0 0
0.347775000000000 -0.566148000000000 0.032835000000000 255 0 0
0.432801000000000 -0.577274000000000 0.033507000000000 255 0 0
0.422424000000000 -0.582646000000000 0.026798000000000 255 0 0
0.409502000000000 -0.579936000000000 0.022391000000000 255 0 0
0.393225000000000 -0.578702000000000 0.020387000000000 255 0 0
0.374554000000000 -0.576233000000000 0.022155000000000 255 0 0
0.358313000000000 -0.578833000000000 0.029340000000000 255 0 0
0.432049000000000 -0.595140000000000 0.033234000000000 255 0 0
0.419029000000000 -0.594842000000000 0.026659000000000 255 0 0
0.404912000000000 -0.594222000000000 0.023919000000000 255 0 0
0.389351000000000 -0.594135000000000 0.023706000000000 255 0 0
0.373123000000000 -0.594395000000000 0.026508000000000 255 0 0
0.357689000000000 -0.594938000000000 0.034388000000000 255 0 0
0.427639000000000 -0.609457000000000 0.032365000000000 255 0 0
0.415357000000000 -0.606339000000000 0.027108000000000 255 0 0
0.403356000000000 -0.609257000000000 0.026015000000000 255 0 0
0.387812000000000 -0.610163000000000 0.026553000000000 255 0 0
0.372300000000000 -0.610499000000000 0.030222000000000 255 0 0
0.419095000000000 -0.622669000000000 0.031796000000000 255 0 0
0.401924000000000 -0.625174000000000 0.028757000000000 255 0 0
0.386197000000000 -0.625336000000000 0.029258000000000 255 0 0
0.371853000000000 -0.625633000000000 0.034386000000000 255 0 0
0.413758000000000 -0.640351000000000 0.034570000000000 255 0 0
0.397405000000000 -0.640213000000000 0.032373000000000 255 0 0
0.383617000000000 -0.637617000000000 0.033279000000000 255 0 0
0.261262000000000 -0.119677000000000 0.007557000000000 255 0 0
0.386367000000000 -0.127183000000000 0.017337000000000 255 0 0
0.270459000000000 -0.129396000000000 0.003800000000000 255 0 0
0.383192000000000 -0.140710000000000 0.010842000000000 255 0 0
0.384074000000000 -0.156880000000000 0.008427000000000 255 0 0
0.389438000000000 -0.175697000000000 0.006535000000000 255 0 0
0.281573000000000 -0.192432000000000 0.004654000000000 255 0 0
0.397009000000000 -0.204677000000000 0.010710000000000 255 0 0
0.281428000000000 -0.204677000000000 0.006890000000000 255 0 0
0.400421000000000 -0.219749000000000 0.009684000000000 255 0 0
0.281416000000000 -0.219489000000000 0.008202000000000 255 0 0
0.402151000000000 -0.235220000000000 0.009158000000000 255 0 0
0.281540000000000 -0.234897000000000 0.008893000000000 255 0 0
0.402875000000000 -0.250777000000000 0.009071000000000 255 0 0
0.282490000000000 -0.250479000000000 0.009483000000000 255 0 0
0.403165000000000 -0.266420000000000 0.009071000000000 255 0 0
0.284222000000000 -0.265527000000000 0.010901000000000 255 0 0
0.403382000000000 -0.282064000000000 0.009071000000000 255 0 0
0.287316000000000 -0.277744000000000 0.013417000000000 255 0 0
0.403651000000000 -0.297745000000000 0.008860000000000 255 0 0
0.290690000000000 -0.293579000000000 0.007808000000000 255 0 0
0.404085000000000 -0.313175000000000 0.007751000000000 255 0 0
0.295103000000000 -0.311387000000000 0.009138000000000 255 0 0
0.404387000000000 -0.325490000000000 0.004299000000000 255 0 0
0.298354000000000 -0.327825000000000 0.010785000000000 255 0 0
0.411466000000000 -0.361137000000000 0.015648000000000 255 0 0
0.406426000000000 -0.342251000000000 0.006718000000000 255 0 0
0.301726000000000 -0.342927000000000 0.015338000000000 255 0 0
0.306904000000000 -0.357728000000000 0.005745000000000 255 0 0
0.411134000000000 -0.375845000000000 0.011012000000000 255 0 0
0.310362000000000 -0.370426000000000 0.011439000000000 255 0 0
0.410545000000000 -0.392320000000000 0.010003000000000 255 0 0
0.316438000000000 -0.388117000000000 0.008912000000000 255 0 0
0.410818000000000 -0.408671000000000 0.010773000000000 255 0 0
0.317263000000000 -0.405974000000000 0.016880000000000 255 0 0
0.410964000000000 -0.424399000000000 0.011562000000000 255 0 0
0.323869000000000 -0.423398000000000 0.011882000000000 255 0 0
0.409936000000000 -0.441574000000000 0.011436000000000 255 0 0
0.332519000000000 -0.439328000000000 0.007409000000000 255 0 0
0.413747000000000 -0.457207000000000 0.016001000000000 255 0 0
0.404909000000000 -0.455160000000000 0.007389000000000 255 0 0
0.332714000000000 -0.453621000000000 0.014826000000000 255 0 0
0.412916000000000 -0.469812000000000 0.015623000000000 255 0 0
0.400683000000000 -0.472429000000000 0.007167000000000 255 0 0
0.343260000000000 -0.468111000000000 0.009981000000000 255 0 0
0.413040000000000 -0.485232000000000 0.015709000000000 255 0 0
0.405300000000000 -0.488550000000000 0.010226000000000 255 0 0
0.393521000000000 -0.486196000000000 0.006626000000000 255 0 0
0.377668000000000 -0.484926000000000 0.004571000000000 255 0 0
0.359073000000000 -0.482114000000000 0.006708000000000 255 0 0
0.344067000000000 -0.484227000000000 0.015848000000000 255 0 0
0.412308000000000 -0.497814000000000 0.014775000000000 255 0 0
0.403490000000000 -0.500685000000000 0.010801000000000 255 0 0
0.389653000000000 -0.500805000000000 0.008143000000000 255 0 0
0.373732000000000 -0.500420000000000 0.007998000000000 255 0 0
0.357864000000000 -0.500445000000000 0.011412000000000 255 0 0
0.344033000000000 -0.500619000000000 0.019959000000000 255 0 0
0.415984000000000 -0.513911000000000 0.018573000000000 255 0 0
0.401943000000000 -0.515435000000000 0.011727000000000 255 0 0
0.387646000000000 -0.515766000000000 0.009434000000000 255 0 0
0.372540000000000 -0.516362000000000 0.010322000000000 255 0 0
0.357360000000000 -0.516598000000000 0.014895000000000 255 0 0
0.412003000000000 -0.531162000000000 0.017027000000000 255 0 0
0.399152000000000 -0.528124000000000 0.011848000000000 255 0 0
0.387212000000000 -0.531228000000000 0.011211000000000 255 0 0
0.371899000000000 -0.532068000000000 0.012548000000000 255 0 0
0.356958000000000 -0.532192000000000 0.018459000000000 255 0 0
0.403741000000000 -0.545237000000000 0.015600000000000 255 0 0
0.386273000000000 -0.547231000000000 0.013603000000000 255 0 0
0.370553000000000 -0.547178000000000 0.015669000000000 255 0 0
0.398866000000000 -0.563402000000000 0.017832000000000 255 0 0
0.382092000000000 -0.562400000000000 0.017018000000000 255 0 0
0.368335000000000 -0.559676000000000 0.019440000000000 255 0 0
0.393376000000000 -0.128042000000000 0.002269000000000 255 0 0
0.389077000000000 -0.141742000000000 -0.004056000000000 255 0 0
0.271607000000000 -0.138957000000000 -0.011083000000000 255 0 0
0.389005000000000 -0.157485000000000 -0.007512000000000 255 0 0
0.278620000000000 -0.156516000000000 -0.007655000000000 255 0 0
0.395733000000000 -0.189998000000000 -0.000985000000000 255 0 0
0.392254000000000 -0.173584000000000 -0.012478000000000 255 0 0
0.280650000000000 -0.173153000000000 -0.006506000000000 255 0 0
0.280104000000000 -0.189306000000000 -0.006895000000000 255 0 0
0.399880000000000 -0.205219000000000 -0.004279000000000 255 0 0
0.279379000000000 -0.204441000000000 -0.007338000000000 255 0 0
0.402147000000000 -0.220321000000000 -0.005277000000000 255 0 0
0.279491000000000 -0.219278000000000 -0.006610000000000 255 0 0
0.403020000000000 -0.235307000000000 -0.006254000000000 255 0 0
0.279814000000000 -0.234239000000000 -0.005757000000000 255 0 0
0.403093000000000 -0.250777000000000 -0.006573000000000 255 0 0
0.280813000000000 -0.249510000000000 -0.005762000000000 255 0 0
0.403093000000000 -0.266420000000000 -0.006573000000000 255 0 0
0.282852000000000 -0.265365000000000 -0.004826000000000 255 0 0
0.402875000000000 -0.282064000000000 -0.006573000000000 255 0 0
0.286082000000000 -0.280351000000000 -0.000361000000000 255 0 0
0.402348000000000 -0.297659000000000 -0.006809000000000 255 0 0
0.291111000000000 -0.295131000000000 -0.010271000000000 255 0 0
0.401965000000000 -0.312905000000000 -0.007455000000000 255 0 0
0.294435000000000 -0.307671000000000 -0.004396000000000 255 0 0
0.401666000000000 -0.328082000000000 -0.007668000000000 255 0 0
0.300552000000000 -0.324853000000000 -0.007347000000000 255 0 0
0.401226000000000 -0.341137000000000 -0.008636000000000 255 0 0
0.304001000000000 -0.343018000000000 -0.000619000000000 255 0 0
0.403276000000000 -0.357685000000000 -0.002814000000000 255 0 0
0.310227000000000 -0.356374000000000 -0.007139000000000 255 0 0
0.401271000000000 -0.376766000000000 -0.004179000000000 255 0 0
0.315917000000000 -0.372256000000000 -0.003573000000000 255 0 0
0.399316000000000 -0.395885000000000 -0.003902000000000 255 0 0
0.327670000000000 -0.390724000000000 -0.008064000000000 255 0 0
0.403577000000000 -0.412438000000000 0.001513000000000 255 0 0
0.389482000000000 -0.411226000000000 -0.007964000000000 255 0 0
0.328007000000000 -0.409330000000000 0.000607000000000 255 0 0
0.401304000000000 -0.425266000000000 0.000996000000000 255 0 0
0.390458000000000 -0.426983000000000 -0.005048000000000 255 0 0
0.375564000000000 -0.424465000000000 -0.009715000000000 255 0 0
0.343162000000000 -0.422317000000000 -0.007093000000000 255 0 0
0.333370000000000 -0.426778000000000 0.001155000000000 255 0 0
0.397456000000000 -0.439331000000000 0.000620000000000 255 0 0
0.385954000000000 -0.436405000000000 -0.005156000000000 255 0 0
0.376447000000000 -0.440709000000000 -0.006027000000000 255 0 0
0.360246000000000 -0.435732000000000 -0.007141000000000 255 0 0
0.343826000000000 -0.438585000000000 -0.001815000000000 255 0 0
0.389053000000000 -0.452371000000000 -0.000431000000000 255 0 0
0.371931000000000 -0.453503000000000 -0.003410000000000 255 0 0
0.356229000000000 -0.452934000000000 -0.002320000000000 255 0 0
0.342862000000000 -0.453365000000000 0.003992000000000 255 0 0
0.383346000000000 -0.469766000000000 0.001908000000000 255 0 0
0.366659000000000 -0.468500000000000 0.000847000000000 255 0 0
0.353228000000000 -0.465411000000000 0.002733000000000 255 0 0
0.391049000000000 -0.141911000000000 -0.019816000000000 255 0 0
0.270875000000000 -0.140926000000000 -0.030283000000000 255 0 0
0.389839000000000 -0.156926000000000 -0.024046000000000 255 0 0
0.276787000000000 -0.156305000000000 -0.024278000000000 255 0 0
0.395687000000000 -0.190862000000000 -0.019547000000000 255 0 0
0.390508000000000 -0.171871000000000 -0.029613000000000 255 0 0
0.279191000000000 -0.172495000000000 -0.022424000000000 255 0 0
0.279491000000000 -0.188238000000000 -0.021861000000000 255 0 0
0.400261000000000 -0.207863000000000 -0.016659000000000 255 0 0
0.279379000000000 -0.203249000000000 -0.021451000000000 255 0 0
0.400750000000000 -0.220134000000000 -0.020135000000000 255 0 0
0.280103000000000 -0.218350000000000 -0.021494000000000 255 0 0
0.400775000000000 -0.235158000000000 -0.021778000000000 255 0 0
0.280902000000000 -0.233671000000000 -0.020683000000000 255 0 0
0.400713000000000 -0.250839000000000 -0.022217000000000 255 0 0
0.281210000000000 -0.246277000000000 -0.017856000000000 255 0 0
0.400520000000000 -0.266632000000000 -0.022043000000000 255 0 0
0.285583000000000 -0.262767000000000 -0.022101000000000 255 0 0
0.399852000000000 -0.282424000000000 -0.021724000000000 255 0 0
0.288375000000000 -0.280496000000000 -0.016582000000000 255 0 0
0.397795000000000 -0.298428000000000 -0.021538000000000 255 0 0
0.294404000000000 -0.293862000000000 -0.023626000000000 255 0 0
0.395982000000000 -0.314718000000000 -0.021000000000000 255 0 0
0.299471000000000 -0.309474000000000 -0.019864000000000 255 0 0
0.394267000000000 -0.331444000000000 -0.020627000000000 255 0 0
0.307156000000000 -0.325316000000000 -0.022916000000000 255 0 0
0.395648000000000 -0.346636000000000 -0.015746000000000 255 0 0
0.387728000000000 -0.341894000000000 -0.024947000000000 255 0 0
0.312823000000000 -0.344013000000000 -0.018061000000000 255 0 0
0.387181000000000 -0.360147000000000 -0.019391000000000 255 0 0
0.327369000000000 -0.360191000000000 -0.023674000000000 255 0 0
0.317886000000000 -0.362301000000000 -0.014663000000000 255 0 0
0.389662000000000 -0.380449000000000 -0.014110000000000 255 0 0
0.373616000000000 -0.377347000000000 -0.022833000000000 255 0 0
0.341645000000000 -0.374132000000000 -0.024640000000000 255 0 0
0.327800000000000 -0.375439000000000 -0.016294000000000 255 0 0
0.382678000000000 -0.393050000000000 -0.015268000000000 255 0 0
0.371417000000000 -0.390659000000000 -0.020350000000000 255 0 0
0.358224000000000 -0.387196000000000 -0.022231000000000 255 0 0
0.341393000000000 -0.389742000000000 -0.017812000000000 255 0 0
0.369882000000000 -0.403719000000000 -0.016178000000000 255 0 0
0.353310000000000 -0.401176000000000 -0.017744000000000 255 0 0
0.341263000000000 -0.405478000000000 -0.011488000000000 255 0 0
0.356955000000000 -0.415955000000000 -0.012589000000000 255 0 0
0.390118000000000 -0.141700000000000 -0.035651000000000 255 0 0
0.272735000000000 -0.140554000000000 -0.046428000000000 255 0 0
0.387558000000000 -0.156293000000000 -0.039438000000000 255 0 0
0.278502000000000 -0.156131000000000 -0.040588000000000 255 0 0
0.386478000000000 -0.168490000000000 -0.042883000000000 255 0 0
0.280816000000000 -0.172371000000000 -0.037902000000000 255 0 0
0.395498000000000 -0.203838000000000 -0.030842000000000 255 0 0
0.389001000000000 -0.184609000000000 -0.040038000000000 255 0 0
0.281416000000000 -0.188114000000000 -0.036832000000000 255 0 0
0.281428000000000 -0.203013000000000 -0.035680000000000 255 0 0
0.395062000000000 -0.219038000000000 -0.035642000000000 255 0 0
0.281573000000000 -0.215321000000000 -0.033241000000000 255 0 0
0.394857000000000 -0.235133000000000 -0.037013000000000 255 0 0
0.285815000000000 -0.232076000000000 -0.037247000000000 255 0 0
0.394543000000000 -0.251488000000000 -0.037107000000000 255 0 0
0.285944000000000 -0.249019000000000 -0.031283000000000 255 0 0
0.394291000000000 -0.267802000000000 -0.036184000000000 255 0 0
0.291789000000000 -0.263300000000000 -0.037488000000000 255 0 0
0.392400000000000 -0.283542000000000 -0.035303000000000 255 0 0
0.297044000000000 -0.281673000000000 -0.034775000000000 255 0 0
0.386778000000000 -0.301181000000000 -0.035160000000000 255 0 0
0.301882000000000 -0.299959000000000 -0.032014000000000 255 0 0
0.387847000000000 -0.318265000000000 -0.030107000000000 255 0 0
0.374592000000000 -0.316016000000000 -0.039122000000000 255 0 0
0.311543000000000 -0.314766000000000 -0.034115000000000 255 0 0
0.382439000000000 -0.329643000000000 -0.031269000000000 255 0 0
0.373936000000000 -0.328916000000000 -0.036376000000000 255 0 0
0.363651000000000 -0.328244000000000 -0.039527000000000 255 0 0
0.347129000000000 -0.327618000000000 -0.041820000000000 255 0 0
0.328541000000000 -0.326453000000000 -0.038949000000000 255 0 0
0.316907000000000 -0.331445000000000 -0.029981000000000 255 0 0
0.374459000000000 -0.341737000000000 -0.032109000000000 255 0 0
0.357600000000000 -0.342931000000000 -0.036492000000000 255 0 0
0.341985000000000 -0.343145000000000 -0.036344000000000 255 0 0
0.327335000000000 -0.344397000000000 -0.030812000000000 255 0 0
0.367091000000000 -0.358325000000000 -0.029871000000000 255 0 0
0.352667000000000 -0.355094000000000 -0.033826000000000 255 0 0
0.340884000000000 -0.358388000000000 -0.030630000000000 255 0 0
0.355737000000000 -0.369046000000000 -0.028363000000000 255 0 0
0.385926000000000 -0.141911000000000 -0.051443000000000 255 0 0
0.381844000000000 -0.157199000000000 -0.052867000000000 255 0 0
0.283998000000000 -0.153646000000000 -0.057116000000000 255 0 0
0.381186000000000 -0.171651000000000 -0.052732000000000 255 0 0
0.286515000000000 -0.171986000000000 -0.052183000000000 255 0 0
0.380346000000000 -0.183772000000000 -0.053759000000000 255 0 0
0.287189000000000 -0.188139000000000 -0.050380000000000 255 0 0
0.385088000000000 -0.200397000000000 -0.048405000000000 255 0 0
0.287189000000000 -0.203609000000000 -0.049265000000000 255 0 0
0.385067000000000 -0.218927000000000 -0.050012000000000 255 0 0
0.287057000000000 -0.218412000000000 -0.045632000000000 255 0 0
0.384534000000000 -0.235695000000000 -0.050545000000000 255 0 0
0.296815000000000 -0.234971000000000 -0.053392000000000 255 0 0
0.382411000000000 -0.254281000000000 -0.050628000000000 255 0 0
0.296479000000000 -0.252717000000000 -0.046758000000000 255 0 0
0.386198000000000 -0.271286000000000 -0.045473000000000 255 0 0
0.372089000000000 -0.269505000000000 -0.054732000000000 255 0 0
0.311021000000000 -0.266942000000000 -0.054627000000000 255 0 0
0.300886000000000 -0.269659000000000 -0.045612000000000 255 0 0
0.380791000000000 -0.283658000000000 -0.046132000000000 255 0 0
0.371169000000000 -0.282852000000000 -0.051997000000000 255 0 0
0.358387000000000 -0.282660000000000 -0.055715000000000 255 0 0
0.325766000000000 -0.280405000000000 -0.055941000000000 255 0 0
0.311116000000000 -0.282365000000000 -0.048437000000000 255 0 0
0.369686000000000 -0.295999000000000 -0.047525000000000 255 0 0
0.356793000000000 -0.296139000000000 -0.051736000000000 255 0 0
0.342727000000000 -0.293659000000000 -0.053527000000000 255 0 0
0.324652000000000 -0.296359000000000 -0.049880000000000 255 0 0
0.310833000000000 -0.297761000000000 -0.041889000000000 255 0 0
0.355745000000000 -0.310248000000000 -0.046482000000000 255 0 0
0.336459000000000 -0.311316000000000 -0.046749000000000 255 0 0
0.322141000000000 -0.309728000000000 -0.043594000000000 255 0 0
0.374491000000000 -0.144827000000000 -0.066838000000000 255 0 0
0.374183000000000 -0.161343000000000 -0.061594000000000 255 0 0
0.360523000000000 -0.160620000000000 -0.071008000000000 255 0 0
0.296495000000000 -0.155656000000000 -0.070571000000000 255 0 0
0.371820000000000 -0.173591000000000 -0.062122000000000 255 0 0
0.361327000000000 -0.177176000000000 -0.067569000000000 255 0 0
0.345460000000000 -0.174858000000000 -0.072665000000000 255 0 0
0.310858000000000 -0.170690000000000 -0.072039000000000 255 0 0
0.296779000000000 -0.171717000000000 -0.063678000000000 255 0 0
0.371849000000000 -0.188024000000000 -0.061078000000000 255 0 0
0.358655000000000 -0.189700000000000 -0.067291000000000 255 0 0
0.346080000000000 -0.191717000000000 -0.069912000000000 255 0 0
0.329019000000000 -0.185573000000000 -0.071497000000000 255 0 0
0.310990000000000 -0.187501000000000 -0.067942000000000 255 0 0
0.297081000000000 -0.188015000000000 -0.061079000000000 255 0 0
0.372039000000000 -0.203543000000000 -0.060218000000000 255 0 0
0.357795000000000 -0.204565000000000 -0.066600000000000 255 0 0
0.342415000000000 -0.204022000000000 -0.069272000000000 255 0 0
0.326163000000000 -0.203439000000000 -0.069256000000000 255 0 0
0.310511000000000 -0.203721000000000 -0.066304000000000 255 0 0
0.297060000000000 -0.203845000000000 -0.059734000000000 255 0 0
0.371622000000000 -0.219576000000000 -0.060334000000000 255 0 0
0.356537000000000 -0.219576000000000 -0.066314000000000 255 0 0
