ply
format ascii 1.0
element vertex 700
property double x
property double y
property double z
property uchar red
property uchar green
property uchar blue
end_header
-0.166511000000000 0.577505000000000 0.482805000000000 255 0 0
-0.182093000000000 0.577640000000000 0.484002000000000 255 0 0
-0.198043000000000 0.578683000000000 0.483444000000000 255 0 0
-0.213524000000000 0.578745000000000 0.479002000000000 255 0 0
-0.225944000000000 0.577777000000000 0.470856000000000 255 0 0
-0.177478000000000 0.562555000000000 0.478910000000000 255 0 0
-0.192936000000000 0.562853000000000 0.479622000000000 255 0 0
-0.208071000000000 0.562853000000000 0.477147000000000 255 0 0
-0.221476000000000 0.562555000000000 0.470641000000000 255 0 0
-0.190138000000000 0.547979000000000 0.476834000000000 255 0 0
-0.204545000000000 0.547706000000000 0.475901000000000 255 0 0
-0.218413000000000 0.546684000000000 0.470143000000000 255 0 0
-0.188916000000000 0.533316000000000 0.473769000000000 255 0 0
-0.200777000000000 0.535693000000000 0.474544000000000 255 0 0
-0.233166000000000 0.577653000000000 0.460002000000000 255 0 0
-0.161690000000000 0.562090000000000 0.473954000000000 255 0 0
-0.230749000000000 0.562468000000000 0.460078000000000 255 0 0
-0.161224000000000 0.545827000000000 0.466593000000000 255 0 0
-0.175413000000000 0.547135000000000 0.473935000000000 255 0 0
-0.229161000000000 0.546597000000000 0.460224000000000 255 0 0
-0.174998000000000 0.531643000000000 0.468460000000000 255 0 0
-0.213489000000000 0.531686000000000 0.470246000000000 255 0 0
-0.227551000000000 0.528671000000000 0.460457000000000 255 0 0
-0.176616000000000 0.515879000000000 0.464197000000000 255 0 0
-0.187403000000000 0.520440000000000 0.469537000000000 255 0 0
-0.202998000000000 0.519468000000000 0.469846000000000 255 0 0
-0.221126000000000 0.513305000000000 0.463539000000000 255 0 0
-0.231778000000000 0.512514000000000 0.455010000000000 255 0 0
-0.193817000000000 0.503630000000000 0.465177000000000 255 0 0
-0.212227000000000 0.501200000000000 0.463934000000000 255 0 0
-0.222376000000000 0.500166000000000 0.460624000000000 255 0 0
-0.191583000000000 0.485171000000000 0.460242000000000 255 0 0
-0.207802000000000 0.485544000000000 0.460718000000000 255 0 0
-0.224338000000000 0.487018000000000 0.455939000000000 255 0 0
-0.204714000000000 0.469201000000000 0.457857000000000 255 0 0
-0.220886000000000 0.468829000000000 0.453904000000000 255 0 0
-0.145955000000000 0.560926000000000 0.462392000000000 255 0 0
-0.151796000000000 0.544459000000000 0.455360000000000 255 0 0
-0.162027000000000 0.528554000000000 0.458038000000000 255 0 0
-0.167527000000000 0.511918000000000 0.456115000000000 255 0 0
-0.178035000000000 0.500008000000000 0.459216000000000 255 0 0
-0.229885000000000 0.500059000000000 0.454799000000000 255 0 0
-0.177622000000000 0.484609000000000 0.454012000000000 255 0 0
-0.237598000000000 0.485267000000000 0.444017000000000 255 0 0
-0.177057000000000 0.469884000000000 0.449670000000000 255 0 0
-0.189546000000000 0.469735000000000 0.456058000000000 255 0 0
-0.235216000000000 0.468916000000000 0.444317000000000 255 0 0
-0.187210000000000 0.457503000000000 0.451503000000000 255 0 0
-0.200381000000000 0.454327000000000 0.454295000000000 255 0 0
-0.216675000000000 0.452812000000000 0.452332000000000 255 0 0
-0.233543000000000 0.450456000000000 0.443938000000000 255 0 0
-0.193056000000000 0.440948000000000 0.448358000000000 255 0 0
-0.211344000000000 0.438174000000000 0.450229000000000 255 0 0
-0.226908000000000 0.436702000000000 0.446457000000000 255 0 0
-0.238624000000000 0.434404000000000 0.439371000000000 255 0 0
-0.206639000000000 0.423399000000000 0.446358000000000 255 0 0
-0.221963000000000 0.422654000000000 0.445434000000000 255 0 0
-0.236302000000000 0.421934000000000 0.439272000000000 255 0 0
-0.204829000000000 0.408289000000000 0.442595000000000 255 0 0
-0.217175000000000 0.410691000000000 0.443775000000000 255 0 0
-0.235208000000000 0.578236000000000 0.446118000000000 255 0 0
-0.234658000000000 0.562617000000000 0.446491000000000 255 0 0
-0.143512000000000 0.553455000000000 0.445345000000000 255 0 0
-0.234801000000000 0.546961000000000 0.446959000000000 255 0 0
-0.151018000000000 0.535026000000000 0.442247000000000 255 0 0
-0.235350000000000 0.531371000000000 0.448024000000000 255 0 0
-0.158505000000000 0.515870000000000 0.445964000000000 255 0 0
-0.235731000000000 0.518382000000000 0.449289000000000 255 0 0
-0.166982000000000 0.499607000000000 0.450396000000000 255 0 0
-0.239026000000000 0.502438000000000 0.442920000000000 255 0 0
-0.243854000000000 0.499521000000000 0.425719000000000 255 0 0
-0.167189000000000 0.484907000000000 0.443864000000000 255 0 0
-0.245211000000000 0.484808000000000 0.429511000000000 255 0 0
-0.167665000000000 0.470331000000000 0.438012000000000 255 0 0
-0.245292000000000 0.469139000000000 0.430968000000000 255 0 0
-0.177494000000000 0.455047000000000 0.443849000000000 255 0 0
-0.244940000000000 0.453520000000000 0.431853000000000 255 0 0
-0.178136000000000 0.438931000000000 0.437712000000000 255 0 0
-0.245692000000000 0.438195000000000 0.431460000000000 255 0 0
-0.191491000000000 0.422890000000000 0.441894000000000 255 0 0
-0.245536000000000 0.425114000000000 0.431943000000000 255 0 0
-0.190774000000000 0.406840000000000 0.436308000000000 255 0 0
-0.231090000000000 0.407002000000000 0.438844000000000 255 0 0
-0.248695000000000 0.406122000000000 0.426534000000000 255 0 0
-0.192235000000000 0.390803000000000 0.432397000000000 255 0 0
-0.203047000000000 0.395289000000000 0.438014000000000 255 0 0
-0.219150000000000 0.394299000000000 0.438578000000000 255 0 0
-0.239417000000000 0.387774000000000 0.431953000000000 255 0 0
-0.253339000000000 0.386290000000000 0.422644000000000 255 0 0
-0.209333000000000 0.378500000000000 0.434005000000000 255 0 0
-0.228005000000000 0.375742000000000 0.433437000000000 255 0 0
-0.240763000000000 0.371594000000000 0.429545000000000 255 0 0
-0.251191000000000 0.372901000000000 0.423690000000000 255 0 0
-0.207405000000000 0.360256000000000 0.428526000000000 255 0 0
-0.223054000000000 0.360993000000000 0.430483000000000 255 0 0
-0.235652000000000 0.362673000000000 0.429824000000000 255 0 0
-0.220992000000000 0.345189000000000 0.426915000000000 255 0 0
-0.238140000000000 0.346381000000000 0.425014000000000 255 0 0
-0.231022000000000 0.579006000000000 0.431699000000000 255 0 0
-0.232793000000000 0.563064000000000 0.431948000000000 255 0 0
-0.146629000000000 0.549655000000000 0.430401000000000 255 0 0
-0.234915000000000 0.547147000000000 0.431898000000000 255 0 0
-0.149819000000000 0.536560000000000 0.426714000000000 255 0 0
-0.237083000000000 0.531081000000000 0.432858000000000 255 0 0
-0.153755000000000 0.520028000000000 0.428556000000000 255 0 0
-0.239516000000000 0.515991000000000 0.436437000000000 255 0 0
-0.159518000000000 0.501220000000000 0.436592000000000 255 0 0
-0.161204000000000 0.485929000000000 0.430562000000000 255 0 0
-0.162177000000000 0.473221000000000 0.426405000000000 255 0 0
-0.167017000000000 0.456794000000000 0.429858000000000 255 0 0
-0.167901000000000 0.439263000000000 0.424285000000000 255 0 0
-0.177824000000000 0.422332000000000 0.431757000000000 255 0 0
-0.177817000000000 0.403932000000000 0.424281000000000 255 0 0
-0.260499000000000 0.405443000000000 0.408652000000000 255 0 0
-0.183166000000000 0.386782000000000 0.424128000000000 255 0 0
-0.260585000000000 0.389703000000000 0.412541000000000 255 0 0
-0.193679000000000 0.374857000000000 0.427357000000000 255 0 0
-0.260754000000000 0.373649000000000 0.413276000000000 255 0 0
-0.193457000000000 0.359520000000000 0.421474000000000 255 0 0
-0.247177000000000 0.358908000000000 0.424213000000000 255 0 0
-0.259876000000000 0.356610000000000 0.413807000000000 255 0 0
-0.206245000000000 0.344584000000000 0.423177000000000 255 0 0
-0.254620000000000 0.342888000000000 0.417407000000000 255 0 0
-0.264086000000000 0.340779000000000 0.408435000000000 255 0 0
-0.206790000000000 0.328695000000000 0.417987000000000 255 0 0
-0.218076000000000 0.332278000000000 0.423006000000000 255 0 0
-0.232422000000000 0.329375000000000 0.422323000000000 255 0 0
-0.249682000000000 0.326128000000000 0.417315000000000 255 0 0
-0.262611000000000 0.327595000000000 0.408444000000000 255 0 0
-0.208305000000000 0.312009000000000 0.413329000000000 255 0 0
-0.224010000000000 0.315638000000000 0.418562000000000 255 0 0
-0.242110000000000 0.313209000000000 0.417013000000000 255 0 0
-0.252239000000000 0.312496000000000 0.413992000000000 255 0 0
-0.222191000000000 0.298170000000000 0.413580000000000 255 0 0
-0.237393000000000 0.298601000000000 0.413959000000000 255 0 0
-0.254030000000000 0.298990000000000 0.409215000000000 255 0 0
-0.233308000000000 0.286304000000000 0.411579000000000 255 0 0
-0.220294000000000 0.581494000000000 0.418262000000000 255 0 0
-0.150275000000000 0.563797000000000 0.418810000000000 255 0 0
-0.225917000000000 0.564182000000000 0.418369000000000 255 0 0
-0.152942000000000 0.547987000000000 0.416879000000000 255 0 0
-0.228895000000000 0.548327000000000 0.417533000000000 255 0 0
-0.154532000000000 0.532635000000000 0.415198000000000 255 0 0
-0.233340000000000 0.531591000000000 0.417144000000000 255 0 0
-0.156106000000000 0.519337000000000 0.413474000000000 255 0 0
-0.239708000000000 0.513049000000000 0.418199000000000 255 0 0
-0.157286000000000 0.503306000000000 0.418944000000000 255 0 0
-0.244316000000000 0.496225000000000 0.411863000000000 255 0 0
-0.159917000000000 0.485780000000000 0.416081000000000 255 0 0
-0.248042000000000 0.483839000000000 0.414086000000000 255 0 0
-0.161548000000000 0.470182000000000 0.415000000000000 255 0 0
-0.250043000000000 0.468841000000000 0.415812000000000 255 0 0
-0.162624000000000 0.454625000000000 0.413987000000000 255 0 0
-0.251285000000000 0.453781000000000 0.417894000000000 255 0 0
-0.162984000000000 0.441617000000000 0.411296000000000 255 0 0
-0.251240000000000 0.441512000000000 0.421125000000000 255 0 0
-0.166991000000000 0.424679000000000 0.415102000000000 255 0 0
-0.253980000000000 0.424651000000000 0.418043000000000 255 0 0
-0.260387000000000 0.418307000000000 0.397308000000000 255 0 0
-0.167443000000000 0.407411000000000 0.408226000000000 255 0 0
-0.174111000000000 0.390480000000000 0.413618000000000 255 0 0
-0.182626000000000 0.374630000000000 0.418053000000000 255 0 0
-0.182748000000000 0.360522000000000 0.409865000000000 255 0 0
-0.193288000000000 0.344013000000000 0.414541000000000 255 0 0
-0.193438000000000 0.325638000000000 0.406791000000000 255 0 0
-0.198641000000000 0.308235000000000 0.406334000000000 255 0 0
-0.260440000000000 0.312378000000000 0.408347000000000 255 0 0
-0.208815000000000 0.296307000000000 0.408442000000000 255 0 0
-0.268409000000000 0.296631000000000 0.397598000000000 255 0 0
-0.208935000000000 0.281379000000000 0.402056000000000 255 0 0
-0.221926000000000 0.283035000000000 0.408523000000000 255 0 0
-0.247283000000000 0.282526000000000 0.407665000000000 255 0 0
-0.264380000000000 0.278224000000000 0.397403000000000 255 0 0
-0.222526000000000 0.267366000000000 0.402265000000000 255 0 0
-0.236561000000000 0.272163000000000 0.406137000000000 255 0 0
-0.253605000000000 0.263504000000000 0.400510000000000 255 0 0
-0.267835000000000 0.260480000000000 0.392206000000000 255 0 0
-0.238972000000000 0.253543000000000 0.399422000000000 255 0 0
-0.252284000000000 0.250330000000000 0.397596000000000 255 0 0
-0.160241000000000 0.577827000000000 0.411153000000000 255 0 0
-0.174568000000000 0.575697000000000 0.404942000000000 255 0 0
-0.187727000000000 0.572757000000000 0.402502000000000 255 0 0
-0.203508000000000 0.575714000000000 0.406367000000000 255 0 0
-0.161979000000000 0.561745000000000 0.408490000000000 255 0 0
-0.177333000000000 0.558030000000000 0.400003000000000 255 0 0
-0.195179000000000 0.560810000000000 0.399394000000000 255 0 0
-0.205606000000000 0.562611000000000 0.402061000000000 255 0 0
-0.214268000000000 0.563971000000000 0.407742000000000 255 0 0
-0.162575000000000 0.545493000000000 0.405376000000000 255 0 0
-0.207703000000000 0.549261000000000 0.399208000000000 255 0 0
-0.220469000000000 0.551735000000000 0.408273000000000 255 0 0
-0.162563000000000 0.528192000000000 0.402163000000000 255 0 0
-0.221820000000000 0.534319000000000 0.402818000000000 255 0 0
-0.159425000000000 0.513000000000000 0.405900000000000 255 0 0
-0.231394000000000 0.516369000000000 0.402928000000000 255 0 0
-0.161077000000000 0.500137000000000 0.404041000000000 255 0 0
-0.238793000000000 0.500212000000000 0.401462000000000 255 0 0
-0.162193000000000 0.484758000000000 0.402367000000000 255 0 0
-0.244235000000000 0.484482000000000 0.399918000000000 255 0 0
-0.162756000000000 0.469102000000000 0.401066000000000 255 0 0
-0.249255000000000 0.468879000000000 0.400292000000000 255 0 0
-0.162769000000000 0.453433000000000 0.399834000000000 255 0 0
-0.252754000000000 0.452809000000000 0.401849000000000 255 0 0
-0.162677000000000 0.437587000000000 0.400103000000000 255 0 0
-0.255299000000000 0.437621000000000 0.406967000000000 255 0 0
-0.162793000000000 0.422452000000000 0.399383000000000 255 0 0
-0.163603000000000 0.410620000000000 0.395233000000000 255 0 0
-0.265107000000000 0.401915000000000 0.394663000000000 255 0 0
-0.168112000000000 0.394871000000000 0.396499000000000 255 0 0
-0.266001000000000 0.389765000000000 0.397928000000000 255 0 0
-0.174851000000000 0.376773000000000 0.404278000000000 255 0 0
-0.266446000000000 0.374680000000000 0.399766000000000 255 0 0
-0.176602000000000 0.364310000000000 0.397419000000000 255 0 0
-0.266909000000000 0.359379000000000 0.401247000000000 255 0 0
-0.182123000000000 0.346726000000000 0.399318000000000 255 0 0
-0.267502000000000 0.346527000000000 0.402508000000000 255 0 0
-0.182599000000000 0.329164000000000 0.391737000000000 255 0 0
-0.271066000000000 0.330494000000000 0.396191000000000 255 0 0
-0.275758000000000 0.328419000000000 0.379028000000000 255 0 0
-0.189152000000000 0.311668000000000 0.396248000000000 255 0 0
-0.270769000000000 0.312750000000000 0.397126000000000 255 0 0
-0.277219000000000 0.312899000000000 0.382525000000000 255 0 0
-0.197853000000000 0.295661000000000 0.399489000000000 255 0 0
-0.277242000000000 0.296821000000000 0.383696000000000 255 0 0
-0.198093000000000 0.281262000000000 0.391802000000000 255 0 0
-0.276392000000000 0.280631000000000 0.384127000000000 255 0 0
-0.208710000000000 0.266476000000000 0.393832000000000 255 0 0
-0.276161000000000 0.264378000000000 0.383742000000000 255 0 0
-0.221454000000000 0.251536000000000 0.394901000000000 255 0 0
-0.262253000000000 0.248331000000000 0.392819000000000 255 0 0
-0.275714000000000 0.246493000000000 0.382078000000000 255 0 0
-0.218863000000000 0.238061000000000 0.388095000000000 255 0 0
-0.233021000000000 0.236166000000000 0.392597000000000 255 0 0
-0.251405000000000 0.236753000000000 0.392773000000000 255 0 0
-0.268780000000000 0.231171000000000 0.385398000000000 255 0 0
-0.279734000000000 0.230231000000000 0.375969000000000 255 0 0
-0.225477000000000 0.220993000000000 0.384571000000000 255 0 0
-0.243690000000000 0.219864000000000 0.388125000000000 255 0 0
-0.259481000000000 0.219057000000000 0.386006000000000 255 0 0
-0.269197000000000 0.218310000000000 0.382529000000000 255 0 0
-0.238762000000000 0.204390000000000 0.382736000000000 255 0 0
-0.254043000000000 0.204415000000000 0.383006000000000 255 0 0
-0.270309000000000 0.204999000000000 0.377965000000000 255 0 0
-0.249225000000000 0.192367000000000 0.380403000000000 255 0 0
-0.172559000000000 0.541405000000000 0.397328000000000 255 0 0
-0.188441000000000 0.542510000000000 0.393755000000000 255 0 0
-0.166273000000000 0.514437000000000 0.395912000000000 255 0 0
-0.175205000000000 0.528607000000000 0.392286000000000 255 0 0
-0.187373000000000 0.525593000000000 0.387702000000000 255 0 0
-0.203969000000000 0.527531000000000 0.390415000000000 255 0 0
-0.177007000000000 0.513730000000000 0.387516000000000 255 0 0
-0.192299000000000 0.510382000000000 0.382459000000000 255 0 0
-0.208412000000000 0.510258000000000 0.383661000000000 255 0 0
-0.220227000000000 0.515574000000000 0.391551000000000 255 0 0
-0.167706000000000 0.499657000000000 0.392444000000000 255 0 0
-0.177607000000000 0.498520000000000 0.383365000000000 255 0 0
-0.219971000000000 0.499299000000000 0.383068000000000 255 0 0
-0.229870000000000 0.503850000000000 0.392483000000000 255 0 0
-0.168066000000000 0.484187000000000 0.389972000000000 255 0 0
-0.233774000000000 0.487376000000000 0.386898000000000 255 0 0
-0.167967000000000 0.468208000000000 0.387561000000000 255 0 0
-0.242143000000000 0.470043000000000 0.386207000000000 255 0 0
-0.167141000000000 0.450005000000000 0.385061000000000 255 0 0
-0.248393000000000 0.453137000000000 0.385974000000000 255 0 0
-0.163033000000000 0.433784000000000 0.389336000000000 255 0 0
-0.255274000000000 0.434286000000000 0.387495000000000 255 0 0
-0.163588000000000 0.422059000000000 0.386051000000000 255 0 0
-0.259694000000000 0.417242000000000 0.381131000000000 255 0 0
-0.165278000000000 0.408194000000000 0.384053000000000 255 0 0
-0.264118000000000 0.404366000000000 0.382644000000000 255 0 0
-0.168600000000000 0.395696000000000 0.381638000000000 255 0 0
-0.266593000000000 0.389703000000000 0.383286000000000 255 0 0
-0.172222000000000 0.379397000000000 0.386574000000000 255 0 0
-0.268417000000000 0.374742000000000 0.384702000000000 255 0 0
-0.176188000000000 0.361184000000000 0.384363000000000 255 0 0
-0.269855000000000 0.359384000000000 0.386643000000000 255 0 0
-0.178019000000000 0.345127000000000 0.382514000000000 255 0 0
-0.271364000000000 0.344505000000000 0.390101000000000 255 0 0
-0.178443000000000 0.332546000000000 0.378659000000000 255 0 0
-0.182110000000000 0.316189000000000 0.379436000000000 255 0 0
-0.189204000000000 0.295389000000000 0.385153000000000 255 0 0
-0.192502000000000 0.281782000000000 0.383566000000000 255 0 0
-0.197166000000000 0.269089000000000 0.381251000000000 255 0 0
-0.208041000000000 0.251241000000000 0.385393000000000 255 0 0
-0.208847000000000 0.232860000000000 0.376781000000000 255 0 0
-0.214726000000000 0.215519000000000 0.375480000000000 255 0 0
-0.276945000000000 0.217791000000000 0.376728000000000 255 0 0
-0.224885000000000 0.203198000000000 0.377238000000000 255 0 0
-0.284293000000000 0.202594000000000 0.366253000000000 255 0 0
-0.237756000000000 0.189296000000000 0.376914000000000 255 0 0
-0.263010000000000 0.188601000000000 0.376398000000000 255 0 0
-0.280024000000000 0.184286000000000 0.366041000000000 255 0 0
-0.238612000000000 0.173478000000000 0.370588000000000 255 0 0
-0.252435000000000 0.178300000000000 0.374809000000000 255 0 0
-0.269734000000000 0.169768000000000 0.369550000000000 255 0 0
-0.283467000000000 0.166691000000000 0.360974000000000 255 0 0
-0.255968000000000 0.159661000000000 0.368602000000000 255 0 0
-0.269274000000000 0.156882000000000 0.366992000000000 255 0 0
-0.252770000000000 0.142211000000000 0.363728000000000 255 0 0
-0.270359000000000 0.143806000000000 0.362101000000000 255 0 0
-0.187713000000000 0.494674000000000 0.377899000000000 255 0 0
-0.177349000000000 0.483181000000000 0.380043000000000 255 0 0
-0.203291000000000 0.494749000000000 0.376809000000000 255 0 0
-0.190163000000000 0.481635000000000 0.373254000000000 255 0 0
-0.203178000000000 0.478562000000000 0.370528000000000 255 0 0
-0.218956000000000 0.481049000000000 0.374565000000000 255 0 0
-0.177780000000000 0.467215000000000 0.376449000000000 255 0 0
-0.192353000000000 0.464425000000000 0.367561000000000 255 0 0
-0.210413000000000 0.465904000000000 0.366202000000000 255 0 0
-0.224168000000000 0.465028000000000 0.368970000000000 255 0 0
-0.232230000000000 0.471978000000000 0.376830000000000 255 0 0
-0.168006000000000 0.436213000000000 0.378119000000000 255 0 0
-0.177420000000000 0.451273000000000 0.371530000000000 255 0 0
-0.236485000000000 0.454805000000000 0.371942000000000 255 0 0
-0.177347000000000 0.436511000000000 0.366744000000000 255 0 0
-0.246353000000000 0.437290000000000 0.371743000000000 255 0 0
-0.169059000000000 0.421997000000000 0.374057000000000 255 0 0
-0.253598000000000 0.421476000000000 0.370455000000000 255 0 0
-0.171189000000000 0.407321000000000 0.371429000000000 255 0 0
-0.258160000000000 0.405766000000000 0.368936000000000 255 0 0
-0.173682000000000 0.392016000000000 0.370801000000000 255 0 0
-0.262825000000000 0.390510000000000 0.368942000000000 255 0 0
-0.176534000000000 0.375913000000000 0.370490000000000 255 0 0
-0.266405000000000 0.374978000000000 0.369236000000000 255 0 0
-0.178048000000000 0.359843000000000 0.369519000000000 255 0 0
-0.269166000000000 0.358825000000000 0.370316000000000 255 0 0
-0.178764000000000 0.344671000000000 0.368211000000000 255 0 0
-0.273002000000000 0.343243000000000 0.374103000000000 255 0 0
-0.179600000000000 0.329946000000000 0.366848000000000 255 0 0
-0.276336000000000 0.326917000000000 0.362821000000000 255 0 0
-0.181097000000000 0.317264000000000 0.363935000000000 255 0 0
-0.279804000000000 0.312291000000000 0.366761000000000 255 0 0
-0.184468000000000 0.301020000000000 0.366130000000000 255 0 0
-0.281453000000000 0.296821000000000 0.368383000000000 255 0 0
-0.189666000000000 0.283243000000000 0.373474000000000 255 0 0
-0.282188000000000 0.281078000000000 0.369319000000000 255 0 0
-0.192032000000000 0.270932000000000 0.366707000000000 255 0 0
-0.282548000000000 0.265831000000000 0.370432000000000 255 0 0
-0.197557000000000 0.253465000000000 0.368859000000000 255 0 0
-0.282565000000000 0.252862000000000 0.372267000000000 255 0 0
-0.198665000000000 0.235758000000000 0.360971000000000 255 0 0
-0.286299000000000 0.236003000000000 0.365443000000000 255 0 0
-0.290839000000000 0.233522000000000 0.347624000000000 255 0 0
-0.205334000000000 0.219357000000000 0.365607000000000 255 0 0
-0.286773000000000 0.218238000000000 0.365773000000000 255 0 0
-0.292517000000000 0.218660000000000 0.351366000000000 255 0 0
-0.213629000000000 0.203656000000000 0.367237000000000 255 0 0
-0.292871000000000 0.202871000000000 0.352380000000000 255 0 0
-0.224456000000000 0.188290000000000 0.368893000000000 255 0 0
-0.291964000000000 0.186593000000000 0.352521000000000 255 0 0
-0.224675000000000 0.172650000000000 0.360531000000000 255 0 0
-0.291403000000000 0.169932000000000 0.351710000000000 255 0 0
-0.238612000000000 0.156965000000000 0.363805000000000 255 0 0
-0.278532000000000 0.155460000000000 0.362074000000000 255 0 0
-0.290246000000000 0.152978000000000 0.351368000000000 255 0 0
-0.237846000000000 0.140870000000000 0.358043000000000 255 0 0
-0.284001000000000 0.143085000000000 0.355848000000000 255 0 0
-0.239058000000000 0.125119000000000 0.353275000000000 255 0 0
-0.249632000000000 0.128967000000000 0.358993000000000 255 0 0
-0.264171000000000 0.126660000000000 0.358278000000000 255 0 0
-0.283610000000000 0.125591000000000 0.350340000000000 255 0 0
-0.255067000000000 0.112956000000000 0.353734000000000 255 0 0
-0.273024000000000 0.110127000000000 0.351833000000000 255 0 0
-0.286781000000000 0.105936000000000 0.344290000000000 255 0 0
-0.265897000000000 0.098742000000000 0.349823000000000 255 0 0
-0.187220000000000 0.448728000000000 0.364203000000000 255 0 0
-0.200654000000000 0.450901000000000 0.361112000000000 255 0 0
-0.219065000000000 0.449077000000000 0.361572000000000 255 0 0
-0.178690000000000 0.421761000000000 0.363613000000000 255 0 0
-0.189904000000000 0.436387000000000 0.359735000000000 255 0 0
-0.204960000000000 0.435406000000000 0.355839000000000 255 0 0
-0.218568000000000 0.432026000000000 0.354399000000000 255 0 0
-0.233573000000000 0.434227000000000 0.359690000000000 255 0 0
-0.191835000000000 0.420941000000000 0.355640000000000 255 0 0
-0.207593000000000 0.417781000000000 0.350190000000000 255 0 0
-0.224930000000000 0.419543000000000 0.350460000000000 255 0 0
-0.237525000000000 0.418667000000000 0.353775000000000 255 0 0
-0.244778000000000 0.424414000000000 0.361478000000000 255 0 0
-0.180627000000000 0.406291000000000 0.360799000000000 255 0 0
-0.192329000000000 0.404999000000000 0.351836000000000 255 0 0
-0.246666000000000 0.408160000000000 0.356330000000000 255 0 0
-0.182208000000000 0.390597000000000 0.358783000000000 255 0 0
-0.254286000000000 0.391110000000000 0.355677000000000 255 0 0
-0.183269000000000 0.374953000000000 0.357093000000000 255 0 0
-0.259044000000000 0.375801000000000 0.355042000000000 255 0 0
-0.183842000000000 0.359421000000000 0.355973000000000 255 0 0
-0.263676000000000 0.359231000000000 0.354604000000000 255 0 0
-0.183967000000000 0.343976000000000 0.354657000000000 255 0 0
-0.270169000000000 0.340551000000000 0.355595000000000 255 0 0
-0.184459000000000 0.328531000000000 0.353124000000000 255 0 0
-0.273461000000000 0.324024000000000 0.349546000000000 255 0 0
-0.184813000000000 0.313300000000000 0.352530000000000 255 0 0
-0.277790000000000 0.311782000000000 0.351518000000000 255 0 0
-0.186273000000000 0.300855000000000 0.351027000000000 255 0 0
-0.280944000000000 0.296734000000000 0.352715000000000 255 0 0
-0.188395000000000 0.285434000000000 0.355952000000000 255 0 0
-0.282953000000000 0.280991000000000 0.353505000000000 255 0 0
-0.191998000000000 0.267448000000000 0.353795000000000 255 0 0
-0.284843000000000 0.265136000000000 0.354639000000000 255 0 0
-0.193782000000000 0.251317000000000 0.351765000000000 255 0 0
-0.286705000000000 0.250159000000000 0.358550000000000 255 0 0
-0.194876000000000 0.238836000000000 0.347686000000000 255 0 0
-0.199407000000000 0.223366000000000 0.349238000000000 255 0 0
-0.205708000000000 0.208231000000000 0.355875000000000 255 0 0
-0.212545000000000 0.191184000000000 0.354526000000000 255 0 0
-0.214527000000000 0.173371000000000 0.346671000000000 255 0 0
-0.224867000000000 0.156398000000000 0.353788000000000 255 0 0
-0.225287000000000 0.138518000000000 0.346265000000000 255 0 0
-0.291289000000000 0.138051000000000 0.347339000000000 255 0 0
-0.230262000000000 0.122310000000000 0.344706000000000 255 0 0
-0.295508000000000 0.128480000000000 0.339399000000000 255 0 0
-0.240213000000000 0.109992000000000 0.346175000000000 255 0 0
-0.298067000000000 0.111187000000000 0.333353000000000 255 0 0
-0.253711000000000 0.095880000000000 0.346386000000000 255 0 0
-0.279635000000000 0.093810000000000 0.345052000000000 255 0 0
-0.295738000000000 0.089947000000000 0.334148000000000 255 0 0
-0.254457000000000 0.079072000000000 0.339621000000000 255 0 0
-0.268559000000000 0.084362000000000 0.344070000000000 255 0 0
-0.285488000000000 0.075714000000000 0.338253000000000 255 0 0
-0.299061000000000 0.072738000000000 0.329571000000000 255 0 0
-0.255335000000000 0.061963000000000 0.334257000000000 255 0 0
-0.271761000000000 0.065617000000000 0.337715000000000 255 0 0
-0.284918000000000 0.063018000000000 0.335798000000000 255 0 0
-0.268906000000000 0.048174000000000 0.333193000000000 255 0 0
-0.285901000000000 0.049903000000000 0.331031000000000 255 0 0
-0.202703000000000 0.401945000000000 0.346389000000000 255 0 0
-0.215810000000000 0.404553000000000 0.345030000000000 255 0 0
-0.192526000000000 0.389790000000000 0.349181000000000 255 0 0
-0.231614000000000 0.405224000000000 0.347362000000000 255 0 0
-0.205314000000000 0.389604000000000 0.342901000000000 255 0 0
-0.220868000000000 0.389237000000000 0.340996000000000 255 0 0
-0.239070000000000 0.387889000000000 0.344494000000000 255 0 0
-0.193436000000000 0.374742000000000 0.346723000000000 255 0 0
-0.206969000000000 0.373990000000000 0.339894000000000 255 0 0
-0.224122000000000 0.370566000000000 0.335883000000000 255 0 0
-0.240416000000000 0.370818000000000 0.338094000000000 255 0 0
-0.249680000000000 0.377647000000000 0.345817000000000 255 0 0
-0.193730000000000 0.359061000000000 0.344770000000000 255 0 0
-0.206845000000000 0.357763000000000 0.336020000000000 255 0 0
-0.251622000000000 0.360877000000000 0.340981000000000 255 0 0
-0.193515000000000 0.342970000000000 0.342510000000000 255 0 0
-0.259297000000000 0.342917000000000 0.340582000000000 255 0 0
-0.193446000000000 0.325124000000000 0.339363000000000 255 0 0
-0.266416000000000 0.327048000000000 0.339594000000000 255 0 0
-0.188874000000000 0.309417000000000 0.342569000000000 255 0 0
-0.271605000000000 0.312394000000000 0.338467000000000 255 0 0
-0.190697000000000 0.297321000000000 0.341129000000000 255 0 0
-0.274814000000000 0.297140000000000 0.338112000000000 255 0 0
-0.192662000000000 0.281963000000000 0.340521000000000 255 0 0
-0.279054000000000 0.281351000000000 0.338126000000000 255 0 0
-0.193764000000000 0.265980000000000 0.339173000000000 255 0 0
-0.282728000000000 0.265111000000000 0.338333000000000 255 0 0
-0.194863000000000 0.250808000000000 0.337648000000000 255 0 0
-0.287120000000000 0.246847000000000 0.339557000000000 255 0 0
-0.196553000000000 0.236272000000000 0.336333000000000 255 0 0
-0.291084000000000 0.230027000000000 0.333435000000000 255 0 0
-0.199986000000000 0.223767000000000 0.334219000000000 255 0 0
-0.294597000000000 0.217832000000000 0.335866000000000 255 0 0
-0.204185000000000 0.207690000000000 0.339665000000000 255 0 0
-0.296271000000000 0.202871000000000 0.337154000000000 255 0 0
-0.208473000000000 0.189336000000000 0.336667000000000 255 0 0
-0.297128000000000 0.187190000000000 0.337592000000000 255 0 0
-0.210064000000000 0.175999000000000 0.333196000000000 255 0 0
-0.297349000000000 0.171384000000000 0.337655000000000 255 0 0
-0.214858000000000 0.158872000000000 0.337003000000000 255 0 0
-0.297436000000000 0.155939000000000 0.338027000000000 255 0 0
-0.217011000000000 0.141321000000000 0.331164000000000 255 0 0
-0.297397000000000 0.140995000000000 0.338057000000000 255 0 0
-0.222558000000000 0.127983000000000 0.337528000000000 255 0 0
-0.228246000000000 0.112629000000000 0.334031000000000 255 0 0
-0.307252000000000 0.108064000000000 0.315372000000000 255 0 0
-0.240157000000000 0.094418000000000 0.337323000000000 255 0 0
-0.307061000000000 0.092834000000000 0.319700000000000 255 0 0
-0.240562000000000 0.075538000000000 0.328693000000000 255 0 0
-0.306933000000000 0.075969000000000 0.320032000000000 255 0 0
-0.245667000000000 0.058186000000000 0.328204000000000 255 0 0
-0.294176000000000 0.061596000000000 0.330787000000000 255 0 0
-0.305811000000000 0.058748000000000 0.319714000000000 255 0 0
-0.255157000000000 0.046643000000000 0.329620000000000 255 0 0
-0.299522000000000 0.049041000000000 0.324491000000000 255 0 0
-0.255585000000000 0.031980000000000 0.324248000000000 255 0 0
-0.265887000000000 0.035163000000000 0.328922000000000 255 0 0
-0.280001000000000 0.032589000000000 0.327455000000000 255 0 0
-0.298817000000000 0.031384000000000 0.319558000000000 255 0 0
-0.271087000000000 0.018255000000000 0.324663000000000 255 0 0
-0.290003000000000 0.015444000000000 0.321752000000000 255 0 0
-0.303079000000000 0.012999000000000 0.314515000000000 255 0 0
-0.267090000000000 -0.000367000000000 0.323763000000000 255 0 0
-0.284328000000000 -0.000691000000000 0.323185000000000 255 0 0
-0.300899000000000 -0.000970000000000 0.316601000000000 255 0 0
-0.277967000000000 -0.016559000000000 0.328699000000000 255 0 0
-0.218427000000000 0.354096000000000 0.331039000000000 255 0 0
-0.206315000000000 0.342064000000000 0.332834000000000 255 0 0
-0.233831000000000 0.354934000000000 0.331370000000000 255 0 0
-0.220361000000000 0.341468000000000 0.326929000000000 255 0 0
-0.232440000000000 0.338953000000000 0.325532000000000 255 0 0
-0.245560000000000 0.342172000000000 0.330278000000000 255 0 0
-0.197165000000000 0.311402000000000 0.333200000000000 255 0 0
-0.207435000000000 0.326855000000000 0.328551000000000 255 0 0
-0.221910000000000 0.326432000000000 0.323456000000000 255 0 0
-0.237022000000000 0.326122000000000 0.323114000000000 255 0 0
-0.253620000000000 0.325163000000000 0.328303000000000 255 0 0
-0.208977000000000 0.311447000000000 0.324598000000000 255 0 0
-0.224237000000000 0.308859000000000 0.319060000000000 255 0 0
-0.241890000000000 0.310719000000000 0.319383000000000 255 0 0
-0.254748000000000 0.309353000000000 0.322444000000000 255 0 0
-0.262507000000000 0.314893000000000 0.329969000000000 255 0 0
-0.198464000000000 0.296523000000000 0.330293000000000 255 0 0
-0.208916000000000 0.295567000000000 0.321670000000000 255 0 0
-0.263191000000000 0.298781000000000 0.325064000000000 255 0 0
-0.199106000000000 0.280941000000000 0.328636000000000 255 0 0
-0.208459000000000 0.280283000000000 0.318821000000000 255 0 0
-0.270165000000000 0.281690000000000 0.324476000000000 255 0 0
-0.199472000000000 0.265471000000000 0.326757000000000 255 0 0
-0.274957000000000 0.266232000000000 0.323816000000000 255 0 0
-0.200455000000000 0.250237000000000 0.324797000000000 255 0 0
-0.279841000000000 0.249637000000000 0.323084000000000 255 0 0
-0.202476000000000 0.235238000000000 0.323339000000000 255 0 0
-0.286005000000000 0.233078000000000 0.322167000000000 255 0 0
-0.205064000000000 0.219987000000000 0.323078000000000 255 0 0
-0.290390000000000 0.217881000000000 0.321542000000000 255 0 0
-0.208060000000000 0.203970000000000 0.322898000000000 255 0 0
-0.294247000000000 0.202933000000000 0.321803000000000 255 0 0
-0.209659000000000 0.188270000000000 0.321836000000000 255 0 0
-0.296993000000000 0.187314000000000 0.321948000000000 255 0 0
-0.211200000000000 0.172746000000000 0.321587000000000 255 0 0
-0.298401000000000 0.171570000000000 0.322159000000000 255 0 0
-0.213050000000000 0.156829000000000 0.320311000000000 255 0 0
-0.299889000000000 0.156079000000000 0.323268000000000 255 0 0
-0.215965000000000 0.141769000000000 0.315631000000000 255 0 0
-0.300516000000000 0.143647000000000 0.326512000000000 255 0 0
-0.219664000000000 0.126968000000000 0.325080000000000 255 0 0
-0.302235000000000 0.127009000000000 0.324153000000000 255 0 0
-0.305703000000000 0.118459000000000 0.305700000000000 255 0 0
-0.222941000000000 0.114277000000000 0.319498000000000 255 0 0
-0.228768000000000 0.096768000000000 0.321685000000000 255 0 0
-0.230224000000000 0.079030000000000 0.313849000000000 255 0 0
-0.236823000000000 0.061959000000000 0.318660000000000 255 0 0
-0.245027000000000 0.046283000000000 0.321910000000000 255 0 0
-0.306503000000000 0.043169000000000 0.315518000000000 255 0 0
-0.245183000000000 0.032212000000000 0.314449000000000 255 0 0
-0.310843000000000 0.030859000000000 0.306626000000000 255 0 0
-0.255185000000000 0.015861000000000 0.318868000000000 255 0 0
-0.309083000000000 0.018568000000000 0.308548000000000 255 0 0
-0.314209000000000 0.002047000000000 0.304559000000000 255 0 0
-0.218523000000000 0.292528000000000 0.316378000000000 255 0 0
-0.231739000000000 0.295207000000000 0.314285000000000 255 0 0
-0.247680000000000 0.295804000000000 0.316306000000000 255 0 0
-0.209297000000000 0.265235000000000 0.316551000000000 255 0 0
-0.220958000000000 0.280097000000000 0.312758000000000 255 0 0
-0.236512000000000 0.279730000000000 0.310171000000000 255 0 0
-0.254767000000000 0.278381000000000 0.313268000000000 255 0 0
-0.222831000000000 0.264483000000000 0.309055000000000 255 0 0
-0.239828000000000 0.261059000000000 0.304782000000000 255 0 0
-0.256060000000000 0.261310000000000 0.306806000000000 255 0 0
-0.265324000000000 0.268140000000000 0.314529000000000 255 0 0
-0.210272000000000 0.249703000000000 0.313892000000000 255 0 0
-0.223213000000000 0.248380000000000 0.305146000000000 255 0 0
-0.267408000000000 0.251424000000000 0.309640000000000 255 0 0
-0.211766000000000 0.234183000000000 0.311703000000000 255 0 0
-0.275118000000000 0.233804000000000 0.309014000000000 255 0 0
-0.213520000000000 0.218664000000000 0.310136000000000 255 0 0
-0.282320000000000 0.218444000000000 0.308560000000000 255 0 0
-0.214644000000000 0.203044000000000 0.309393000000000 255 0 0
-0.287729000000000 0.203632000000000 0.307970000000000 255 0 0
-0.215254000000000 0.187487000000000 0.308800000000000 255 0 0
-0.290632000000000 0.187720000000000 0.307114000000000 255 0 0
-0.216001000000000 0.171906000000000 0.307775000000000 255 0 0
-0.294603000000000 0.171608000000000 0.306925000000000 255 0 0
-0.217406000000000 0.156721000000000 0.305642000000000 255 0 0
-0.298147000000000 0.155645000000000 0.307624000000000 255 0 0
-0.219732000000000 0.143851000000000 0.302612000000000 255 0 0
-0.301439000000000 0.137993000000000 0.310072000000000 255 0 0
-0.220317000000000 0.127765000000000 0.308262000000000 255 0 0
-0.223223000000000 0.110158000000000 0.307361000000000 255 0 0
-0.310001000000000 0.104215000000000 0.301413000000000 255 0 0
-0.225301000000000 0.094704000000000 0.305119000000000 255 0 0
-0.311462000000000 0.092499000000000 0.304359000000000 255 0 0
-0.226708000000000 0.082308000000000 0.301000000000000 255 0 0
-0.312424000000000 0.077385000000000 0.305692000000000 255 0 0
-0.231164000000000 0.066350000000000 0.302343000000000 255 0 0
-0.312612000000000 0.061294000000000 0.305684000000000 255 0 0
-0.237699000000000 0.048252000000000 0.309686000000000 255 0 0
-0.312437000000000 0.045456000000000 0.305545000000000 255 0 0
-0.239203000000000 0.035789000000000 0.303024000000000 255 0 0
-0.243302000000000 0.017925000000000 0.306116000000000 255 0 0
-0.323488000000000 0.000072000000000 0.287810000000000 255 0 0
-0.234419000000000 0.244664000000000 0.299999000000000 255 0 0
-0.223257000000000 0.233128000000000 0.302341000000000 255 0 0
-0.249475000000000 0.245427000000000 0.300144000000000 255 0 0
-0.236305000000000 0.232147000000000 0.296542000000000 255 0 0
-0.247835000000000 0.229520000000000 0.294915000000000 255 0 0
-0.261008000000000 0.232674000000000 0.299091000000000 255 0 0
-0.224281000000000 0.218130000000000 0.300319000000000 255 0 0
-0.237256000000000 0.217434000000000 0.294335000000000 255 0 0
-0.251808000000000 0.216645000000000 0.292882000000000 255 0 0
-0.268708000000000 0.215461000000000 0.297208000000000 255 0 0
-0.224955000000000 0.202746000000000 0.298937000000000 255 0 0
-0.238389000000000 0.201874000000000 0.292308000000000 255 0 0
-0.254423000000000 0.198800000000000 0.288931000000000 255 0 0
-0.269690000000000 0.199167000000000 0.291348000000000 255 0 0
-0.278076000000000 0.205515000000000 0.298866000000000 255 0 0
-0.225017000000000 0.187041000000000 0.297828000000000 255 0 0
-0.237963000000000 0.185932000000000 0.289349000000000 255 0 0
-0.278500000000000 0.189064000000000 0.294024000000000 255 0 0
-0.225307000000000 0.171484000000000 0.295717000000000 255 0 0
-0.285261000000000 0.171447000000000 0.293438000000000 255 0 0
-0.226219000000000 0.156104000000000 0.293157000000000 255 0 0
-0.290868000000000 0.155865000000000 0.293408000000000 255 0 0
-0.227184000000000 0.138157000000000 0.291618000000000 255 0 0
-0.296048000000000 0.140514000000000 0.293762000000000 255 0 0
-0.223896000000000 0.121503000000000 0.296603000000000 255 0 0
-0.300803000000000 0.124196000000000 0.292645000000000 255 0 0
-0.225193000000000 0.108722000000000 0.293870000000000 255 0 0
-0.304721000000000 0.107717000000000 0.290560000000000 255 0 0
-0.226615000000000 0.094282000000000 0.291455000000000 255 0 0
-0.309291000000000 0.092673000000000 0.290118000000000 255 0 0
-0.228989000000000 0.079759000000000 0.289958000000000 255 0 0
-0.312364000000000 0.077782000000000 0.290516000000000 255 0 0
-0.232424000000000 0.067175000000000 0.287862000000000 255 0 0
-0.313796000000000 0.062101000000000 0.290661000000000 255 0 0
-0.235262000000000 0.050876000000000 0.292760000000000 255 0 0
-0.315092000000000 0.046184000000000 0.290984000000000 255 0 0
-0.238661000000000 0.032514000000000 0.291008000000000 255 0 0
-0.315822000000000 0.030689000000000 0.292432000000000 255 0 0
-0.238158000000000 0.015253000000000 0.289818000000000 255 0 0
-0.316336000000000 0.016033000000000 0.296602000000000 255 0 0
-0.249224000000000 0.182688000000000 0.284791000000000 255 0 0
-0.237731000000000 0.170677000000000 0.286606000000000 255 0 0
-0.262752000000000 0.185366000000000 0.285825000000000 255 0 0
-0.251961000000000 0.170022000000000 0.281567000000000 255 0 0
-0.268969000000000 0.168433000000000 0.283149000000000 255 0 0
-0.238858000000000 0.155098000000000 0.283752000000000 255 0 0
-0.253522000000000 0.153990000000000 0.278246000000000 255 0 0
-0.266492000000000 0.150988000000000 0.277040000000000 255 0 0
-0.279179000000000 0.154776000000000 0.282675000000000 255 0 0
-0.230065000000000 0.123475000000000 0.285449000000000 255 0 0
-0.240076000000000 0.138855000000000 0.279959000000000 255 0 0
-0.255599000000000 0.135847000000000 0.273243000000000 255 0 0
-0.273198000000000 0.138525000000000 0.275050000000000 255 0 0
-0.287056000000000 0.140668000000000 0.282490000000000 255 0 0
-0.240424000000000 0.123071000000000 0.275635000000000 255 0 0
-0.282465000000000 0.124818000000000 0.274112000000000 255 0 0
-0.292774000000000 0.128446000000000 0.283135000000000 255 0 0
-0.231087000000000 0.108647000000000 0.282174000000000 255 0 0
-0.240494000000000 0.107977000000000 0.272198000000000 255 0 0
-0.293266000000000 0.111285000000000 0.277648000000000 255 0 0
-0.232771000000000 0.093711000000000 0.279575000000000 255 0 0
-0.301099000000000 0.093719000000000 0.277196000000000 255 0 0
-0.234691000000000 0.078800000000000 0.277783000000000 255 0 0
-0.305851000000000 0.078543000000000 0.276673000000000 255 0 0
-0.237379000000000 0.063495000000000 0.277806000000000 255 0 0
-0.309507000000000 0.062569000000000 0.275818000000000 255 0 0
-0.239550000000000 0.047392000000000 0.277713000000000 255 0 0
-0.313157000000000 0.046420000000000 0.275853000000000 255 0 0
-0.240230000000000 0.031024000000000 0.276647000000000 255 0 0
-0.316180000000000 0.030394000000000 0.276900000000000 255 0 0
-0.238602000000000 0.014685000000000 0.274311000000000 255 0 0
-0.320145000000000 0.014850000000000 0.280968000000000 255 0 0
-0.326452000000000 -0.001046000000000 0.271644000000000 255 0 0
-0.250573000000000 0.119602000000000 0.269962000000000 255 0 0
-0.265346000000000 0.120427000000000 0.268507000000000 255 0 0
-0.242213000000000 0.093066000000000 0.270060000000000 255 0 0
-0.252669000000000 0.107018000000000 0.266278000000000 255 0 0
-0.263860000000000 0.104395000000000 0.263848000000000 255 0 0
-0.277301000000000 0.107759000000000 0.267251000000000 255 0 0
-0.254058000000000 0.092284000000000 0.263583000000000 255 0 0
-0.268339000000000 0.091494000000000 0.261864000000000 255 0 0
-0.285785000000000 0.090591000000000 0.265847000000000 255 0 0
-0.244256000000000 0.077832000000000 0.268189000000000 255 0 0
-0.255914000000000 0.076670000000000 0.261652000000000 255 0 0
-0.271600000000000 0.073258000000000 0.257889000000000 255 0 0
-0.287347000000000 0.073584000000000 0.260128000000000 255 0 0
-0.296612000000000 0.080413000000000 0.267523000000000 255 0 0
-0.245381000000000 0.062101000000000 0.267099000000000 255 0 0
-0.256022000000000 0.060654000000000 0.259119000000000 255 0 0
-0.298279000000000 0.063750000000000 0.262772000000000 255 0 0
-0.246037000000000 0.046283000000000 0.265988000000000 255 0 0
-0.255486000000000 0.045402000000000 0.256336000000000 255 0 0
-0.305016000000000 0.046280000000000 0.262090000000000 255 0 0
-0.245845000000000 0.030664000000000 0.263772000000000 255 0 0
-0.311338000000000 0.030402000000000 0.262277000000000 255 0 0
-0.244576000000000 0.014983000000000 0.259859000000000 255 0 0
-0.318486000000000 0.012616000000000 0.263124000000000 255 0 0
-0.325514000000000 -0.003832000000000 0.257747000000000 255 0 0
-0.266054000000000 0.056937000000000 0.254317000000000 255 0 0
-0.280762000000000 0.057701000000000 0.253690000000000 255 0 0
-0.255693000000000 0.030279000000000 0.253603000000000 255 0 0
-0.267727000000000 0.044359000000000 0.250622000000000 255 0 0
-0.279371000000000 0.041719000000000 0.248189000000000 255 0 0
-0.292233000000000 0.045001000000000 0.252220000000000 255 0 0
-0.269112000000000 0.029212000000000 0.246408000000000 255 0 0
-0.284380000000000 0.028839000000000 0.244904000000000 255 0 0
-0.300530000000000 0.027993000000000 0.249908000000000 255 0 0
-0.255602000000000 0.014441000000000 0.248281000000000 255 0 0
-0.272187000000000 0.011762000000000 0.238608000000000 255 0 0
-0.291189000000000 0.013585000000000 0.239000000000000 255 0 0
-0.303889000000000 0.011952000000000 0.243120000000000 255 0 0
-0.309977000000000 0.017153000000000 0.252018000000000 255 0 0
-0.315376000000000 0.001068000000000 0.245840000000000 255 0 0
