ply
format ascii 1.0
element vertex 741
property double x
property double y
property double z
property uchar red
property uchar green
property uchar blue
end_header
0.247058000000000 -0.112843000000000 0.008860000000000 255 0 0
0.231588000000000 -0.110490000000000 0.009071000000000 255 0 0
0.215944000000000 -0.109983000000000 0.009071000000000 255 0 0
0.200300000000000 -0.109983000000000 0.009071000000000 255 0 0
0.184657000000000 -0.109983000000000 0.009071000000000 255 0 0
0.169013000000000 -0.109983000000000 0.009071000000000 255 0 0
0.153369000000000 -0.109983000000000 0.009071000000000 255 0 0
0.137725000000000 -0.109983000000000 0.009071000000000 255 0 0
0.122081000000000 -0.109983000000000 0.009071000000000 255 0 0
0.106437000000000 -0.109983000000000 0.009071000000000 255 0 0
0.090793000000000 -0.109983000000000 0.009071000000000 255 0 0
0.075150000000000 -0.109983000000000 0.009071000000000 255 0 0
0.059506000000000 -0.109983000000000 0.009071000000000 255 0 0
0.043949000000000 -0.109983000000000 0.009158000000000 255 0 0
0.028537000000000 -0.110563000000000 0.009245000000000 255 0 0
0.013013000000000 -0.112322000000000 0.009096000000000 255 0 0
-0.002863000000000 -0.115798000000000 0.009009000000000 255 0 0
-0.409810000000000 -0.116284000000000 0.009071000000000 255 0 0
-0.425454000000000 -0.112518000000000 0.009071000000000 255 0 0
-0.441098000000000 -0.110563000000000 0.009071000000000 255 0 0
-0.456742000000000 -0.109983000000000 0.009071000000000 255 0 0
-0.472386000000000 -0.109983000000000 0.009071000000000 255 0 0
-0.488029000000000 -0.109983000000000 0.009071000000000 255 0 0
-0.503673000000000 -0.109983000000000 0.009071000000000 255 0 0
-0.519317000000000 -0.109911000000000 0.009071000000000 255 0 0
-0.534961000000000 -0.108379000000000 0.009133000000000 255 0 0
-0.549691000000000 -0.103338000000000 0.010098000000000 255 0 0
0.386367000000000 -0.127183000000000 0.017337000000000 255 0 0
0.270459000000000 -0.129396000000000 0.003800000000000 255 0 0
-0.018920000000000 -0.119812000000000 0.009133000000000 255 0 0
-0.034796000000000 -0.123289000000000 0.009046000000000 255 0 0
-0.050320000000000 -0.125048000000000 0.008897000000000 255 0 0
-0.065732000000000 -0.125627000000000 0.008984000000000 255 0 0
-0.081289000000000 -0.125627000000000 0.009071000000000 255 0 0
-0.096933000000000 -0.125627000000000 0.009071000000000 255 0 0
-0.112577000000000 -0.125627000000000 0.009071000000000 255 0 0
-0.128221000000000 -0.125627000000000 0.009071000000000 255 0 0
-0.143865000000000 -0.125627000000000 0.009071000000000 255 0 0
-0.159508000000000 -0.125627000000000 0.009071000000000 255 0 0
-0.175152000000000 -0.125627000000000 0.009071000000000 255 0 0
-0.190796000000000 -0.125627000000000 0.009071000000000 255 0 0
-0.206440000000000 -0.125627000000000 0.009071000000000 255 0 0
-0.222084000000000 -0.125627000000000 0.009071000000000 255 0 0
-0.237728000000000 -0.125627000000000 0.009071000000000 255 0 0
-0.253372000000000 -0.125627000000000 0.009071000000000 255 0 0
-0.269015000000000 -0.125627000000000 0.009071000000000 255 0 0
-0.284659000000000 -0.125627000000000 0.009071000000000 255 0 0
-0.300303000000000 -0.125627000000000 0.009071000000000 255 0 0
-0.315947000000000 -0.125627000000000 0.009071000000000 255 0 0
-0.331591000000000 -0.125627000000000 0.009071000000000 255 0 0
-0.347235000000000 -0.125627000000000 0.009071000000000 255 0 0
-0.362879000000000 -0.125337000000000 0.009071000000000 255 0 0
-0.378523000000000 -0.123961000000000 0.009071000000000 255 0 0
-0.394166000000000 -0.120485000000000 0.009071000000000 255 0 0
0.247232000000000 -0.019594000000000 -0.006573000000000 255 0 0
0.231588000000000 -0.017131000000000 -0.006573000000000 255 0 0
0.215944000000000 -0.016117000000000 -0.006573000000000 255 0 0
0.200300000000000 -0.016117000000000 -0.006573000000000 255 0 0
0.184657000000000 -0.016117000000000 -0.006573000000000 255 0 0
0.169013000000000 -0.016117000000000 -0.006573000000000 255 0 0
0.153369000000000 -0.016117000000000 -0.006573000000000 255 0 0
0.137725000000000 -0.016117000000000 -0.006573000000000 255 0 0
0.122081000000000 -0.016117000000000 -0.006573000000000 255 0 0
0.106437000000000 -0.016117000000000 -0.006573000000000 255 0 0
0.090793000000000 -0.016117000000000 -0.006573000000000 255 0 0
0.075150000000000 -0.016117000000000 -0.006573000000000 255 0 0
0.059506000000000 -0.016117000000000 -0.006573000000000 255 0 0
0.043862000000000 -0.016117000000000 -0.006573000000000 255 0 0
0.028218000000000 -0.016117000000000 -0.006573000000000 255 0 0
0.012574000000000 -0.016117000000000 -0.006573000000000 255 0 0
-0.003070000000000 -0.016117000000000 -0.006573000000000 255 0 0
-0.018714000000000 -0.016117000000000 -0.006573000000000 255 0 0
-0.034357000000000 -0.016117000000000 -0.006573000000000 255 0 0
-0.050001000000000 -0.016117000000000 -0.006573000000000 255 0 0
-0.065645000000000 -0.016117000000000 -0.006573000000000 255 0 0
-0.081289000000000 -0.016117000000000 -0.006573000000000 255 0 0
-0.096933000000000 -0.016117000000000 -0.006573000000000 255 0 0
-0.112577000000000 -0.016117000000000 -0.006573000000000 255 0 0
-0.128221000000000 -0.016117000000000 -0.006573000000000 255 0 0
-0.143865000000000 -0.016117000000000 -0.006573000000000 255 0 0
-0.159508000000000 -0.016117000000000 -0.006573000000000 255 0 0
-0.175152000000000 -0.016117000000000 -0.006573000000000 255 0 0
-0.190796000000000 -0.016117000000000 -0.006573000000000 255 0 0
-0.206440000000000 -0.016117000000000 -0.006573000000000 255 0 0
-0.222084000000000 -0.016117000000000 -0.006573000000000 255 0 0
-0.237728000000000 -0.016117000000000 -0.006573000000000 255 0 0
-0.253372000000000 -0.016117000000000 -0.006573000000000 255 0 0
-0.269015000000000 -0.016117000000000 -0.006573000000000 255 0 0
-0.284659000000000 -0.016117000000000 -0.006573000000000 255 0 0
-0.300303000000000 -0.016117000000000 -0.006573000000000 255 0 0
-0.315947000000000 -0.016117000000000 -0.006573000000000 255 0 0
-0.331591000000000 -0.016117000000000 -0.006573000000000 255 0 0
-0.347235000000000 -0.016117000000000 -0.006573000000000 255 0 0
-0.362879000000000 -0.016117000000000 -0.006573000000000 255 0 0
-0.378522000000000 -0.016117000000000 -0.006573000000000 255 0 0
-0.394204000000000 -0.016510000000000 -0.006784000000000 255 0 0
-0.409633000000000 -0.017411000000000 -0.007892000000000 255 0 0
-0.421853000000000 -0.018182000000000 -0.011494000000000 255 0 0
0.432050000000000 -0.040854000000000 -0.003328000000000 255 0 0
0.418735000000000 -0.034741000000000 -0.005869000000000 255 0 0
0.403609000000000 -0.032216000000000 -0.006635000000000 255 0 0
0.387758000000000 -0.031368000000000 -0.006697000000000 255 0 0
0.371886000000000 -0.031275000000000 -0.006635000000000 255 0 0
0.356218000000000 -0.031471000000000 -0.006486000000000 255 0 0
0.340777000000000 -0.031689000000000 -0.006399000000000 255 0 0
0.325365000000000 -0.031761000000000 -0.006486000000000 255 0 0
0.309808000000000 -0.031689000000000 -0.006573000000000 255 0 0
0.294164000000000 -0.030820000000000 -0.006573000000000 255 0 0
0.278520000000000 -0.028357000000000 -0.006573000000000 255 0 0
-0.459819000000000 -0.026635000000000 -0.003167000000000 255 0 0
-0.450588000000000 -0.021924000000000 -0.022961000000000 255 0 0
-0.476200000000000 -0.029675000000000 -0.001716000000000 255 0 0
-0.488616000000000 -0.030449000000000 -0.005219000000000 255 0 0
-0.503868000000000 -0.031368000000000 -0.006275000000000 255 0 0
-0.519123000000000 -0.032154000000000 -0.006871000000000 255 0 0
-0.534009000000000 -0.033346000000000 -0.007851000000000 255 0 0
-0.545766000000000 -0.034890000000000 -0.010878000000000 255 0 0
0.441705000000000 -0.050704000000000 0.001729000000000 255 0 0
0.446810000000000 -0.062951000000000 -0.004963000000000 255 0 0
-0.578818000000000 -0.066760000000000 -0.012704000000000 255 0 0
0.447044000000000 -0.076964000000000 -0.008911000000000 255 0 0
-0.577020000000000 -0.078332000000000 -0.006875000000000 255 0 0
0.441736000000000 -0.090825000000000 -0.014722000000000 255 0 0
-0.571166000000000 -0.088607000000000 -0.001412000000000 255 0 0
0.431596000000000 -0.101341000000000 -0.008696000000000 255 0 0
0.418369000000000 -0.109817000000000 -0.006225000000000 255 0 0
0.405086000000000 -0.117870000000000 -0.003254000000000 255 0 0
0.246760000000000 -0.115103000000000 -0.006871000000000 255 0 0
0.231588000000000 -0.111215000000000 -0.006573000000000 255 0 0
0.215944000000000 -0.110056000000000 -0.006573000000000 255 0 0
0.200300000000000 -0.109983000000000 -0.006573000000000 255 0 0
0.184657000000000 -0.109983000000000 -0.006573000000000 255 0 0
0.169013000000000 -0.109983000000000 -0.006573000000000 255 0 0
0.153369000000000 -0.109983000000000 -0.006573000000000 255 0 0
0.137725000000000 -0.109983000000000 -0.006573000000000 255 0 0
0.122081000000000 -0.109983000000000 -0.006573000000000 255 0 0
0.106437000000000 -0.109983000000000 -0.006573000000000 255 0 0
0.090793000000000 -0.109983000000000 -0.006573000000000 255 0 0
0.075150000000000 -0.109983000000000 -0.006573000000000 255 0 0
0.059506000000000 -0.109983000000000 -0.006573000000000 255 0 0
0.043974000000000 -0.110108000000000 -0.006337000000000 255 0 0
0.029095000000000 -0.110720000000000 -0.005741000000000 255 0 0
0.014300000000000 -0.112355000000000 -0.005865000000000 255 0 0
-0.001667000000000 -0.115922000000000 -0.006908000000000 255 0 0
-0.425454000000000 -0.115632000000000 -0.006573000000000 255 0 0
-0.441098000000000 -0.112084000000000 -0.006573000000000 255 0 0
-0.456742000000000 -0.110490000000000 -0.006573000000000 255 0 0
-0.472386000000000 -0.109983000000000 -0.006573000000000 255 0 0
-0.488029000000000 -0.109983000000000 -0.006573000000000 255 0 0
-0.503673000000000 -0.109983000000000 -0.006573000000000 255 0 0
-0.519317000000000 -0.109983000000000 -0.006573000000000 255 0 0
-0.534961000000000 -0.109259000000000 -0.006573000000000 255 0 0
-0.550142000000000 -0.106244000000000 -0.006010000000000 255 0 0
-0.563234000000000 -0.098517000000000 -0.003994000000000 255 0 0
0.393376000000000 -0.128042000000000 0.002269000000000 255 0 0
0.260372000000000 -0.123454000000000 -0.008170000000000 255 0 0
-0.018146000000000 -0.119999000000000 -0.007144000000000 255 0 0
-0.034233000000000 -0.123351000000000 -0.006697000000000 255 0 0
-0.050001000000000 -0.125048000000000 -0.006573000000000 255 0 0
-0.065645000000000 -0.125627000000000 -0.006573000000000 255 0 0
-0.081289000000000 -0.125627000000000 -0.006573000000000 255 0 0
-0.096933000000000 -0.125627000000000 -0.006573000000000 255 0 0
-0.112577000000000 -0.125627000000000 -0.006573000000000 255 0 0
-0.128221000000000 -0.125627000000000 -0.006573000000000 255 0 0
-0.143865000000000 -0.125627000000000 -0.006573000000000 255 0 0
-0.159508000000000 -0.125627000000000 -0.006573000000000 255 0 0
-0.175152000000000 -0.125627000000000 -0.006573000000000 255 0 0
-0.190796000000000 -0.125627000000000 -0.006573000000000 255 0 0
-0.206440000000000 -0.125627000000000 -0.006573000000000 255 0 0
-0.222084000000000 -0.125627000000000 -0.006573000000000 255 0 0
-0.237728000000000 -0.125627000000000 -0.006573000000000 255 0 0
-0.253372000000000 -0.125627000000000 -0.006573000000000 255 0 0
-0.269015000000000 -0.125627000000000 -0.006573000000000 255 0 0
-0.284659000000000 -0.125627000000000 -0.006573000000000 255 0 0
-0.300303000000000 -0.125627000000000 -0.006573000000000 255 0 0
-0.315947000000000 -0.125627000000000 -0.006573000000000 255 0 0
-0.331591000000000 -0.125627000000000 -0.006573000000000 255 0 0
-0.347235000000000 -0.125627000000000 -0.006573000000000 255 0 0
-0.362879000000000 -0.125627000000000 -0.006573000000000 255 0 0
-0.378523000000000 -0.125120000000000 -0.006573000000000 255 0 0
-0.394166000000000 -0.123527000000000 -0.006573000000000 255 0 0
-0.409810000000000 -0.119978000000000 -0.006572000000000 255 0 0
0.389077000000000 -0.141742000000000 -0.004056000000000 255 0 0
0.271607000000000 -0.138957000000000 -0.011083000000000 255 0 0
0.262876000000000 -0.021767000000000 -0.022216000000000 255 0 0
0.247232000000000 -0.018000000000000 -0.022216000000000 255 0 0
0.231588000000000 -0.016407000000000 -0.022217000000000 255 0 0
0.215944000000000 -0.016117000000000 -0.022217000000000 255 0 0
0.200300000000000 -0.016117000000000 -0.022217000000000 255 0 0
0.184657000000000 -0.016117000000000 -0.022217000000000 255 0 0
0.169013000000000 -0.016117000000000 -0.022217000000000 255 0 0
0.153369000000000 -0.016117000000000 -0.022217000000000 255 0 0
0.137725000000000 -0.016117000000000 -0.022217000000000 255 0 0
0.122081000000000 -0.016117000000000 -0.022217000000000 255 0 0
0.106437000000000 -0.016117000000000 -0.022217000000000 255 0 0
0.090793000000000 -0.016117000000000 -0.022217000000000 255 0 0
0.075150000000000 -0.016117000000000 -0.022217000000000 255 0 0
0.059506000000000 -0.016117000000000 -0.022217000000000 255 0 0
0.043862000000000 -0.016117000000000 -0.022217000000000 255 0 0
0.028218000000000 -0.016117000000000 -0.022217000000000 255 0 0
0.012574000000000 -0.016117000000000 -0.022217000000000 255 0 0
-0.003070000000000 -0.016117000000000 -0.022217000000000 255 0 0
-0.018714000000000 -0.016117000000000 -0.022217000000000 255 0 0
-0.034357000000000 -0.016117000000000 -0.022217000000000 255 0 0
-0.050001000000000 -0.016117000000000 -0.022217000000000 255 0 0
-0.065645000000000 -0.016117000000000 -0.022217000000000 255 0 0
-0.081289000000000 -0.016117000000000 -0.022217000000000 255 0 0
-0.096933000000000 -0.016117000000000 -0.022217000000000 255 0 0
-0.112577000000000 -0.016117000000000 -0.022217000000000 255 0 0
-0.128221000000000 -0.016117000000000 -0.022217000000000 255 0 0
-0.143865000000000 -0.016117000000000 -0.022217000000000 255 0 0
-0.159508000000000 -0.016117000000000 -0.022217000000000 255 0 0
-0.175152000000000 -0.016117000000000 -0.022217000000000 255 0 0
-0.190796000000000 -0.016117000000000 -0.022217000000000 255 0 0
-0.206440000000000 -0.016117000000000 -0.022217000000000 255 0 0
-0.222084000000000 -0.016117000000000 -0.022217000000000 255 0 0
-0.237728000000000 -0.016117000000000 -0.022217000000000 255 0 0
-0.253372000000000 -0.016117000000000 -0.022217000000000 255 0 0
-0.269015000000000 -0.016117000000000 -0.022217000000000 255 0 0
-0.284659000000000 -0.016117000000000 -0.022217000000000 255 0 0
-0.300303000000000 -0.016117000000000 -0.022217000000000 255 0 0
-0.315947000000000 -0.016117000000000 -0.022217000000000 255 0 0
-0.331591000000000 -0.016117000000000 -0.022217000000000 255 0 0
-0.347235000000000 -0.016117000000000 -0.022217000000000 255 0 0
-0.362879000000000 -0.016117000000000 -0.022217000000000 255 0 0
-0.378522000000000 -0.016117000000000 -0.022217000000000 255 0 0
-0.394055000000000 -0.016241000000000 -0.022452000000000 255 0 0
-0.409028000000000 -0.016664000000000 -0.023272000000000 255 0 0
-0.423574000000000 -0.017483000000000 -0.024178000000000 255 0 0
-0.435733000000000 -0.018526000000000 -0.026641000000000 255 0 0
0.432062000000000 -0.040494000000000 -0.019257000000000 255 0 0
0.418611000000000 -0.034265000000000 -0.021761000000000 255 0 0
0.402905000000000 -0.030809000000000 -0.022837000000000 255 0 0
0.386102000000000 -0.029506000000000 -0.022837000000000 255 0 0
0.369705000000000 -0.029878000000000 -0.022105000000000 255 0 0
0.354430000000000 -0.030613000000000 -0.021385000000000 255 0 0
0.339800000000000 -0.031120000000000 -0.021385000000000 255 0 0
0.324839000000000 -0.031430000000000 -0.021894000000000 255 0 0
0.309489000000000 -0.031399000000000 -0.022043000000000 255 0 0
0.294077000000000 -0.029878000000000 -0.022130000000000 255 0 0
0.278520000000000 -0.026112000000000 -0.022216000000000 255 0 0
-0.471285000000000 -0.026699000000000 -0.019088000000000 255 0 0
-0.489675000000000 -0.029700000000000 -0.020851000000000 255 0 0
-0.504849000000000 -0.031045000000000 -0.021236000000000 255 0 0
-0.519615000000000 -0.031761000000000 -0.022043000000000 255 0 0
-0.534171000000000 -0.032498000000000 -0.022961000000000 255 0 0
-0.548509000000000 -0.034667000000000 -0.023384000000000 255 0 0
0.441883000000000 -0.050386000000000 -0.013546000000000 255 0 0
-0.562857000000000 -0.040023000000000 -0.024542000000000 255 0 0
-0.573859000000000 -0.047232000000000 -0.028403000000000 255 0 0
0.447086000000000 -0.063394000000000 -0.019990000000000 255 0 0
-0.582251000000000 -0.061809000000000 -0.027696000000000 255 0 0
-0.589002000000000 -0.063915000000000 -0.045793000000000 255 0 0
0.447044000000000 -0.077904000000000 -0.024456000000000 255 0 0
-0.581188000000000 -0.078348000000000 -0.022228000000000 255 0 0
0.441871000000000 -0.091379000000000 -0.030825000000000 255 0 0
-0.573929000000000 -0.091001000000000 -0.015102000000000 255 0 0
0.431907000000000 -0.101747000000000 -0.024948000000000 255 0 0
0.419129000000000 -0.109921000000000 -0.022134000000000 255 0 0
0.406434000000000 -0.118074000000000 -0.019257000000000 255 0 0
0.246727000000000 -0.117168000000000 -0.022635000000000 255 0 0
0.231588000000000 -0.111939000000000 -0.022217000000000 255 0 0
0.215944000000000 -0.110273000000000 -0.022217000000000 255 0 0
0.200300000000000 -0.109983000000000 -0.022217000000000 255 0 0
0.184657000000000 -0.109983000000000 -0.022217000000000 255 0 0
0.169013000000000 -0.109983000000000 -0.022217000000000 255 0 0
0.153369000000000 -0.109983000000000 -0.022217000000000 255 0 0
0.137725000000000 -0.109983000000000 -0.022217000000000 255 0 0
0.122081000000000 -0.109983000000000 -0.022217000000000 255 0 0
0.106437000000000 -0.109983000000000 -0.022217000000000 255 0 0
0.090793000000000 -0.109983000000000 -0.022217000000000 255 0 0
0.075150000000000 -0.109983000000000 -0.022217000000000 255 0 0
0.059506000000000 -0.109983000000000 -0.022217000000000 255 0 0
0.043825000000000 -0.110377000000000 -0.022006000000000 255 0 0
0.028566000000000 -0.111320000000000 -0.021025000000000 255 0 0
0.016731000000000 -0.112417000000000 -0.018060000000000 255 0 0
0.002393000000000 -0.115831000000000 -0.021683000000000 255 0 0
-0.441098000000000 -0.115125000000000 -0.022216000000000 255 0 0
-0.456742000000000 -0.111649000000000 -0.022216000000000 255 0 0
-0.472386000000000 -0.110273000000000 -0.022217000000000 255 0 0
-0.488029000000000 -0.109983000000000 -0.022217000000000 255 0 0
-0.503673000000000 -0.109983000000000 -0.022217000000000 255 0 0
-0.519317000000000 -0.109983000000000 -0.022217000000000 255 0 0
-0.534961000000000 -0.109694000000000 -0.022217000000000 255 0 0
-0.550460000000000 -0.107645000000000 -0.021948000000000 255 0 0
-0.564563000000000 -0.101375000000000 -0.020271000000000 255 0 0
0.396015000000000 -0.128482000000000 -0.013401000000000 255 0 0
0.260462000000000 -0.127081000000000 -0.024427000000000 255 0 0
-0.016748000000000 -0.120579000000000 -0.025250000000000 255 0 0
-0.034022000000000 -0.123620000000000 -0.022875000000000 255 0 0
-0.049939000000000 -0.125068000000000 -0.022279000000000 255 0 0
-0.065645000000000 -0.125627000000000 -0.022217000000000 255 0 0
-0.081289000000000 -0.125627000000000 -0.022217000000000 255 0 0
-0.096933000000000 -0.125627000000000 -0.022217000000000 255 0 0
-0.112577000000000 -0.125627000000000 -0.022217000000000 255 0 0
-0.128221000000000 -0.125627000000000 -0.022217000000000 255 0 0
-0.143865000000000 -0.125627000000000 -0.022217000000000 255 0 0
-0.159508000000000 -0.125627000000000 -0.022217000000000 255 0 0
-0.175152000000000 -0.125627000000000 -0.022217000000000 255 0 0
-0.190796000000000 -0.125627000000000 -0.022217000000000 255 0 0
-0.206440000000000 -0.125627000000000 -0.022217000000000 255 0 0
-0.222084000000000 -0.125627000000000 -0.022217000000000 255 0 0
-0.237728000000000 -0.125627000000000 -0.022217000000000 255 0 0
-0.253372000000000 -0.125627000000000 -0.022217000000000 255 0 0
-0.269015000000000 -0.125627000000000 -0.022217000000000 255 0 0
-0.284659000000000 -0.125627000000000 -0.022217000000000 255 0 0
-0.300303000000000 -0.125627000000000 -0.022217000000000 255 0 0
-0.315947000000000 -0.125627000000000 -0.022217000000000 255 0 0
-0.331591000000000 -0.125627000000000 -0.022217000000000 255 0 0
-0.347235000000000 -0.125627000000000 -0.022217000000000 255 0 0
-0.362879000000000 -0.125627000000000 -0.022217000000000 255 0 0
-0.378522000000000 -0.125627000000000 -0.022217000000000 255 0 0
-0.394166000000000 -0.125048000000000 -0.022216000000000 255 0 0
-0.409810000000000 -0.123092000000000 -0.022216000000000 255 0 0
-0.425454000000000 -0.119326000000000 -0.022216000000000 255 0 0
0.391049000000000 -0.141911000000000 -0.019816000000000 255 0 0
0.270875000000000 -0.140926000000000 -0.030283000000000 255 0 0
0.262876000000000 -0.019594000000000 -0.037860000000000 255 0 0
0.247232000000000 -0.017059000000000 -0.037860000000000 255 0 0
0.231588000000000 -0.016190000000000 -0.037860000000000 255 0 0
0.215944000000000 -0.016117000000000 -0.037860000000000 255 0 0
0.200300000000000 -0.016117000000000 -0.037860000000000 255 0 0
0.184657000000000 -0.016117000000000 -0.037860000000000 255 0 0
0.169013000000000 -0.016117000000000 -0.037860000000000 255 0 0
0.153369000000000 -0.016117000000000 -0.037860000000000 255 0 0
0.137725000000000 -0.016117000000000 -0.037860000000000 255 0 0
0.122081000000000 -0.016117000000000 -0.037860000000000 255 0 0
0.106437000000000 -0.016117000000000 -0.037860000000000 255 0 0
0.090793000000000 -0.016117000000000 -0.037860000000000 255 0 0
0.075150000000000 -0.016117000000000 -0.037860000000000 255 0 0
0.059506000000000 -0.016117000000000 -0.037860000000000 255 0 0
0.043862000000000 -0.016117000000000 -0.037860000000000 255 0 0
0.028218000000000 -0.016117000000000 -0.037860000000000 255 0 0
0.012574000000000 -0.016117000000000 -0.037860000000000 255 0 0
-0.003070000000000 -0.016117000000000 -0.037860000000000 255 0 0
-0.018714000000000 -0.016117000000000 -0.037860000000000 255 0 0
-0.034357000000000 -0.016117000000000 -0.037860000000000 255 0 0
-0.050001000000000 -0.016117000000000 -0.037860000000000 255 0 0
-0.065645000000000 -0.016117000000000 -0.037860000000000 255 0 0
-0.081289000000000 -0.016117000000000 -0.037860000000000 255 0 0
-0.096933000000000 -0.016117000000000 -0.037860000000000 255 0 0
-0.112577000000000 -0.016117000000000 -0.037860000000000 255 0 0
-0.128221000000000 -0.016117000000000 -0.037860000000000 255 0 0
-0.143865000000000 -0.016117000000000 -0.037860000000000 255 0 0
-0.159508000000000 -0.016117000000000 -0.037860000000000 255 0 0
-0.175152000000000 -0.016117000000000 -0.037860000000000 255 0 0
-0.190796000000000 -0.016117000000000 -0.037860000000000 255 0 0
-0.206440000000000 -0.016117000000000 -0.037860000000000 255 0 0
-0.222084000000000 -0.016117000000000 -0.037860000000000 255 0 0
-0.237728000000000 -0.016117000000000 -0.037860000000000 255 0 0
-0.253372000000000 -0.016117000000000 -0.037860000000000 255 0 0
-0.269015000000000 -0.016117000000000 -0.037860000000000 255 0 0
-0.284659000000000 -0.016117000000000 -0.037860000000000 255 0 0
-0.300303000000000 -0.016117000000000 -0.037860000000000 255 0 0
-0.315947000000000 -0.016117000000000 -0.037860000000000 255 0 0
-0.331591000000000 -0.016117000000000 -0.037860000000000 255 0 0
-0.347235000000000 -0.016117000000000 -0.037860000000000 255 0 0
-0.362879000000000 -0.016117000000000 -0.037860000000000 255 0 0
-0.378522000000000 -0.016117000000000 -0.037860000000000 255 0 0
-0.394079000000000 -0.016117000000000 -0.037947000000000 255 0 0
-0.409400000000000 -0.016241000000000 -0.038270000000000 255 0 0
-0.424279000000000 -0.016833000000000 -0.038841000000000 255 0 0
-0.439452000000000 -0.018178000000000 -0.039226000000000 255 0 0
0.432000000000000 -0.039894000000000 -0.035088000000000 255 0 0
0.418177000000000 -0.032051000000000 -0.038171000000000 255 0 0
0.400478000000000 -0.025066000000000 -0.041097000000000 255 0 0
0.405529000000000 -0.013370000000000 -0.058329000000000 255 0 0
0.380453000000000 -0.024825000000000 -0.037848000000000 255 0 0
0.387783000000000 -0.014757000000000 -0.052325000000000 255 0 0
0.364031000000000 -0.026935000000000 -0.036283000000000 255 0 0
0.370545000000000 -0.018537000000000 -0.050668000000000 255 0 0
0.350799000000000 -0.029252000000000 -0.033450000000000 255 0 0
0.338421000000000 -0.029557000000000 -0.036284000000000 255 0 0
0.323283000000000 -0.030584000000000 -0.036817000000000 255 0 0
0.308570000000000 -0.030373000000000 -0.036942000000000 255 0 0
0.293754000000000 -0.028349000000000 -0.037451000000000 255 0 0
0.278433000000000 -0.023925000000000 -0.037773000000000 255 0 0
0.278346000000000 -0.021448000000000 -0.053186000000000 255 0 0
-0.457904000000000 -0.021164000000000 -0.041035000000000 255 0 0
-0.478788000000000 -0.025919000000000 -0.037222000000000 255 0 0
-0.469911000000000 -0.021098000000000 -0.057399000000000 255 0 0
-0.493607000000000 -0.029331000000000 -0.033499000000000 255 0 0
-0.505880000000000 -0.030378000000000 -0.035952000000000 255 0 0
-0.520373000000000 -0.031215000000000 -0.036805000000000 255 0 0
-0.535114000000000 -0.032196000000000 -0.037687000000000 255 0 0
-0.550080000000000 -0.034207000000000 -0.038742000000000 255 0 0
0.441912000000000 -0.050303000000000 -0.029169000000000 255 0 0
-0.565896000000000 -0.038814000000000 -0.042146000000000 255 0 0
-0.574095000000000 -0.040370000000000 -0.056036000000000 255 0 0
-0.580452000000000 -0.049661000000000 -0.041816000000000 255 0 0
-0.587686000000000 -0.051794000000000 -0.059282000000000 255 0 0
0.447127000000000 -0.063629000000000 -0.035543000000000 255 0 0
0.447127000000000 -0.078115000000000 -0.040178000000000 255 0 0
-0.586603000000000 -0.077767000000000 -0.038240000000000 255 0 0
0.441883000000000 -0.091272000000000 -0.046618000000000 255 0 0
-0.578344000000000 -0.092740000000000 -0.033611000000000 255 0 0
0.432062000000000 -0.101757000000000 -0.040820000000000 255 0 0
0.419170000000000 -0.109776000000000 -0.037943000000000 255 0 0
0.406206000000000 -0.117898000000000 -0.035129000000000 255 0 0
0.247240000000000 -0.118043000000000 -0.038928000000000 255 0 0
0.231712000000000 -0.112549000000000 -0.037985000000000 255 0 0
0.215944000000000 -0.110490000000000 -0.037860000000000 255 0 0
0.200300000000000 -0.109983000000000 -0.037860000000000 255 0 0
0.184657000000000 -0.109983000000000 -0.037860000000000 255 0 0
0.169013000000000 -0.109983000000000 -0.037860000000000 255 0 0
0.153369000000000 -0.109983000000000 -0.037860000000000 255 0 0
0.137725000000000 -0.109983000000000 -0.037860000000000 255 0 0
0.122081000000000 -0.109983000000000 -0.037860000000000 255 0 0
0.106437000000000 -0.109983000000000 -0.037860000000000 255 0 0
0.090793000000000 -0.109983000000000 -0.037860000000000 255 0 0
0.075150000000000 -0.109983000000000 -0.037860000000000 255 0 0
0.059593000000000 -0.109983000000000 -0.037774000000000 255 0 0
0.044118000000000 -0.110542000000000 -0.037624000000000 255 0 0
0.028321000000000 -0.112011000000000 -0.037178000000000 255 0 0
0.010840000000000 -0.115067000000000 -0.034934000000000 255 0 0
-0.456742000000000 -0.114039000000000 -0.037860000000000 255 0 0
-0.472386000000000 -0.111215000000000 -0.037860000000000 255 0 0
-0.488029000000000 -0.110056000000000 -0.037860000000000 255 0 0
-0.503673000000000 -0.109983000000000 -0.037860000000000 255 0 0
-0.519317000000000 -0.109983000000000 -0.037860000000000 255 0 0
-0.534961000000000 -0.109911000000000 -0.037860000000000 255 0 0
-0.550605000000000 -0.108597000000000 -0.037798000000000 255 0 0
-0.565388000000000 -0.103934000000000 -0.036788000000000 255 0 0
0.396429000000000 -0.128461000000000 -0.029252000000000 255 0 0
0.261334000000000 -0.127812000000000 -0.041109000000000 255 0 0
-0.008470000000000 -0.119800000000000 -0.038456000000000 255 0 0
-0.022870000000000 -0.123194000000000 -0.042017000000000 255 0 0
-0.034705000000000 -0.124290000000000 -0.039052000000000 255 0 0
-0.049964000000000 -0.125234000000000 -0.038072000000000 255 0 0
-0.065645000000000 -0.125627000000000 -0.037860000000000 255 0 0
-0.081289000000000 -0.125627000000000 -0.037860000000000 255 0 0
-0.096933000000000 -0.125627000000000 -0.037860000000000 255 0 0
-0.112577000000000 -0.125627000000000 -0.037860000000000 255 0 0
-0.128221000000000 -0.125627000000000 -0.037860000000000 255 0 0
-0.143865000000000 -0.125627000000000 -0.037860000000000 255 0 0
-0.159508000000000 -0.125627000000000 -0.037860000000000 255 0 0
-0.175152000000000 -0.125627000000000 -0.037860000000000 255 0 0
-0.190796000000000 -0.125627000000000 -0.037860000000000 255 0 0
-0.206440000000000 -0.125627000000000 -0.037860000000000 255 0 0
-0.222084000000000 -0.125627000000000 -0.037860000000000 255 0 0
-0.237728000000000 -0.125627000000000 -0.037860000000000 255 0 0
-0.253372000000000 -0.125627000000000 -0.037860000000000 255 0 0
-0.269015000000000 -0.125627000000000 -0.037860000000000 255 0 0
-0.284659000000000 -0.125627000000000 -0.037860000000000 255 0 0
-0.300303000000000 -0.125627000000000 -0.037860000000000 255 0 0
-0.315947000000000 -0.125627000000000 -0.037860000000000 255 0 0
-0.331591000000000 -0.125627000000000 -0.037860000000000 255 0 0
-0.347235000000000 -0.125627000000000 -0.037860000000000 255 0 0
-0.362879000000000 -0.125627000000000 -0.037860000000000 255 0 0
-0.378522000000000 -0.125627000000000 -0.037860000000000 255 0 0
-0.394166000000000 -0.125627000000000 -0.037860000000000 255 0 0
-0.409810000000000 -0.124830000000000 -0.037860000000000 255 0 0
-0.425454000000000 -0.122658000000000 -0.037860000000000 255 0 0
-0.441098000000000 -0.118240000000000 -0.037860000000000 255 0 0
0.390118000000000 -0.141700000000000 -0.035651000000000 255 0 0
0.272735000000000 -0.140554000000000 -0.046428000000000 255 0 0
0.410632000000000 0.001735000000000 -0.067620000000000 255 0 0
0.394073000000000 0.000100000000000 -0.061982000000000 255 0 0
0.374768000000000 -0.002767000000000 -0.062069000000000 255 0 0
0.358211000000000 0.002097000000000 -0.072116000000000 255 0 0
0.262876000000000 -0.017928000000000 -0.053504000000000 255 0 0
0.247232000000000 -0.016407000000000 -0.053504000000000 255 0 0
0.231588000000000 -0.016117000000000 -0.053504000000000 255 0 0
0.215944000000000 -0.016117000000000 -0.053504000000000 255 0 0
0.200300000000000 -0.016117000000000 -0.053504000000000 255 0 0
0.184657000000000 -0.016117000000000 -0.053504000000000 255 0 0
0.169013000000000 -0.016117000000000 -0.053504000000000 255 0 0
0.153369000000000 -0.016117000000000 -0.053504000000000 255 0 0
0.137725000000000 -0.016117000000000 -0.053504000000000 255 0 0
0.122081000000000 -0.016117000000000 -0.053504000000000 255 0 0
0.106437000000000 -0.016117000000000 -0.053504000000000 255 0 0
0.090793000000000 -0.016117000000000 -0.053504000000000 255 0 0
0.075150000000000 -0.016117000000000 -0.053504000000000 255 0 0
0.059506000000000 -0.016117000000000 -0.053504000000000 255 0 0
0.043862000000000 -0.016117000000000 -0.053504000000000 255 0 0
0.028218000000000 -0.016117000000000 -0.053504000000000 255 0 0
0.012574000000000 -0.016117000000000 -0.053504000000000 255 0 0
-0.003070000000000 -0.016117000000000 -0.053504000000000 255 0 0
-0.018714000000000 -0.016117000000000 -0.053504000000000 255 0 0
-0.034357000000000 -0.016117000000000 -0.053504000000000 255 0 0
-0.050001000000000 -0.016117000000000 -0.053504000000000 255 0 0
-0.065645000000000 -0.016117000000000 -0.053504000000000 255 0 0
-0.081289000000000 -0.016117000000000 -0.053504000000000 255 0 0
-0.096933000000000 -0.016117000000000 -0.053504000000000 255 0 0
-0.112577000000000 -0.016117000000000 -0.053504000000000 255 0 0
-0.128221000000000 -0.016117000000000 -0.053504000000000 255 0 0
-0.143865000000000 -0.016117000000000 -0.053504000000000 255 0 0
-0.159508000000000 -0.016117000000000 -0.053504000000000 255 0 0
-0.175152000000000 -0.016117000000000 -0.053504000000000 255 0 0
-0.190796000000000 -0.016117000000000 -0.053504000000000 255 0 0
-0.206440000000000 -0.016117000000000 -0.053504000000000 255 0 0
-0.222084000000000 -0.016117000000000 -0.053504000000000 255 0 0
-0.237728000000000 -0.016117000000000 -0.053504000000000 255 0 0
-0.253372000000000 -0.016117000000000 -0.053504000000000 255 0 0
-0.269015000000000 -0.016117000000000 -0.053504000000000 255 0 0
-0.284659000000000 -0.016117000000000 -0.053504000000000 255 0 0
-0.300303000000000 -0.016117000000000 -0.053504000000000 255 0 0
-0.315947000000000 -0.016117000000000 -0.053504000000000 255 0 0
-0.331591000000000 -0.016117000000000 -0.053504000000000 255 0 0
-0.347235000000000 -0.016117000000000 -0.053504000000000 255 0 0
-0.362879000000000 -0.016117000000000 -0.053504000000000 255 0 0
-0.378522000000000 -0.016117000000000 -0.053504000000000 255 0 0
-0.394166000000000 -0.016117000000000 -0.053504000000000 255 0 0
-0.409723000000000 -0.016117000000000 -0.053591000000000 255 0 0
-0.425173000000000 -0.016510000000000 -0.053889000000000 255 0 0
-0.440512000000000 -0.017429000000000 -0.054858000000000 255 0 0
-0.453013000000000 -0.018182000000000 -0.058425000000000 255 0 0
0.431960000000000 -0.037627000000000 -0.051538000000000 255 0 0
0.418884000000000 -0.025488000000000 -0.055062000000000 255 0 0
0.352344000000000 -0.023332000000000 -0.048973000000000 255 0 0
0.360042000000000 -0.012111000000000 -0.061072000000000 255 0 0
0.333810000000000 -0.026288000000000 -0.051388000000000 255 0 0
0.342938000000000 -0.014903000000000 -0.067635000000000 255 0 0
0.319788000000000 -0.029136000000000 -0.048920000000000 255 0 0
0.307729000000000 -0.028199000000000 -0.051372000000000 255 0 0
0.293245000000000 -0.025318000000000 -0.052267000000000 255 0 0
0.293518000000000 -0.022255000000000 -0.067066000000000 255 0 0
-0.492013000000000 -0.026562000000000 -0.050309000000000 255 0 0
-0.484046000000000 -0.021317000000000 -0.072344000000000 255 0 0
-0.508596000000000 -0.029675000000000 -0.048454000000000 255 0 0
-0.521027000000000 -0.030438000000000 -0.051415000000000 255 0 0
-0.535781000000000 -0.031608000000000 -0.052660000000000 255 0 0
-0.550158000000000 -0.033148000000000 -0.054535000000000 255 0 0
-0.561603000000000 -0.034801000000000 -0.057899000000000 255 0 0
0.441840000000000 -0.049868000000000 -0.044937000000000 255 0 0
0.446837000000000 -0.063485000000000 -0.051249000000000 255 0 0
-0.594191000000000 -0.066417000000000 -0.059417000000000 255 0 0
0.446490000000000 -0.077900000000000 -0.055768000000000 255 0 0
-0.592579000000000 -0.077997000000000 -0.053678000000000 255 0 0
0.441368000000000 -0.090552000000000 -0.062166000000000 255 0 0
-0.586815000000000 -0.088622000000000 -0.048260000000000 255 0 0
0.432025000000000 -0.101105000000000 -0.056823000000000 255 0 0
0.418880000000000 -0.109052000000000 -0.053939000000000 255 0 0
0.405018000000000 -0.117165000000000 -0.051518000000000 255 0 0
0.248463000000000 -0.117386000000000 -0.057218000000000 255 0 0
0.231923000000000 -0.112528000000000 -0.054162000000000 255 0 0
0.216006000000000 -0.110542000000000 -0.053566000000000 255 0 0
0.200300000000000 -0.109983000000000 -0.053504000000000 255 0 0
0.184657000000000 -0.109983000000000 -0.053504000000000 255 0 0
0.169013000000000 -0.109983000000000 -0.053504000000000 255 0 0
0.153369000000000 -0.109983000000000 -0.053504000000000 255 0 0
0.137725000000000 -0.109983000000000 -0.053504000000000 255 0 0
0.122081000000000 -0.109983000000000 -0.053504000000000 255 0 0
0.106437000000000 -0.109983000000000 -0.053504000000000 255 0 0
0.090793000000000 -0.109983000000000 -0.053504000000000 255 0 0
0.075150000000000 -0.109983000000000 -0.053504000000000 255 0 0
0.059617000000000 -0.110108000000000 -0.053268000000000 255 0 0
0.044739000000000 -0.110720000000000 -0.052672000000000 255 0 0
0.029820000000000 -0.112313000000000 -0.052672000000000 255 0 0
0.013410000000000 -0.115757000000000 -0.053268000000000 255 0 0
-0.456742000000000 -0.117370000000000 -0.053504000000000 255 0 0
-0.472386000000000 -0.112953000000000 -0.053504000000000 255 0 0
-0.488029000000000 -0.110780000000000 -0.053504000000000 255 0 0
-0.503673000000000 -0.109983000000000 -0.053504000000000 255 0 0
-0.519317000000000 -0.109983000000000 -0.053504000000000 255 0 0
-0.534961000000000 -0.109983000000000 -0.053504000000000 255 0 0
-0.550605000000000 -0.109259000000000 -0.053504000000000 255 0 0
-0.565786000000000 -0.106254000000000 -0.053003000000000 255 0 0
-0.578903000000000 -0.098602000000000 -0.051000000000000 255 0 0
0.394796000000000 -0.128090000000000 -0.045579000000000 255 0 0
0.265050000000000 -0.127381000000000 -0.056596000000000 255 0 0
-0.003906000000000 -0.119854000000000 -0.053740000000000 255 0 0
-0.020315000000000 -0.123297000000000 -0.054336000000000 255 0 0
-0.035235000000000 -0.124890000000000 -0.054336000000000 255 0 0
-0.050113000000000 -0.125503000000000 -0.053740000000000 255 0 0
-0.065645000000000 -0.125627000000000 -0.053504000000000 255 0 0
-0.081289000000000 -0.125627000000000 -0.053504000000000 255 0 0
-0.096933000000000 -0.125627000000000 -0.053504000000000 255 0 0
-0.112577000000000 -0.125627000000000 -0.053504000000000 255 0 0
-0.128221000000000 -0.125627000000000 -0.053504000000000 255 0 0
-0.143865000000000 -0.125627000000000 -0.053504000000000 255 0 0
-0.159508000000000 -0.125627000000000 -0.053504000000000 255 0 0
-0.175152000000000 -0.125627000000000 -0.053504000000000 255 0 0
-0.190796000000000 -0.125627000000000 -0.053504000000000 255 0 0
-0.206440000000000 -0.125627000000000 -0.053504000000000 255 0 0
-0.222084000000000 -0.125627000000000 -0.053504000000000 255 0 0
-0.237728000000000 -0.125627000000000 -0.053504000000000 255 0 0
-0.253372000000000 -0.125627000000000 -0.053504000000000 255 0 0
-0.269015000000000 -0.125627000000000 -0.053504000000000 255 0 0
-0.284659000000000 -0.125627000000000 -0.053504000000000 255 0 0
-0.300303000000000 -0.125627000000000 -0.053504000000000 255 0 0
-0.315947000000000 -0.125627000000000 -0.053504000000000 255 0 0
-0.331591000000000 -0.125627000000000 -0.053504000000000 255 0 0
-0.347235000000000 -0.125627000000000 -0.053504000000000 255 0 0
-0.362879000000000 -0.125627000000000 -0.053504000000000 255 0 0
-0.378522000000000 -0.125627000000000 -0.053504000000000 255 0 0
-0.394166000000000 -0.125627000000000 -0.053504000000000 255 0 0
-0.409810000000000 -0.125555000000000 -0.053504000000000 255 0 0
-0.425454000000000 -0.124396000000000 -0.053504000000000 255 0 0
-0.441098000000000 -0.121571000000000 -0.053504000000000 255 0 0
0.385926000000000 -0.141911000000000 -0.051443000000000 255 0 0
0.275455000000000 -0.137535000000000 -0.059263000000000 255 0 0
0.283998000000000 -0.153646000000000 -0.057116000000000 255 0 0
0.421721000000000 0.004204000000000 -0.076805000000000 255 0 0
0.344349000000000 -0.000136000000000 -0.084736000000000 255 0 0
0.278495000000000 -0.018627000000000 -0.068709000000000 255 0 0
0.262876000000000 -0.016841000000000 -0.069148000000000 255 0 0
0.247232000000000 -0.016117000000000 -0.069148000000000 255 0 0
0.231588000000000 -0.016117000000000 -0.069148000000000 255 0 0
0.215944000000000 -0.016117000000000 -0.069148000000000 255 0 0
0.200300000000000 -0.016117000000000 -0.069148000000000 255 0 0
0.184657000000000 -0.016117000000000 -0.069148000000000 255 0 0
0.169013000000000 -0.016117000000000 -0.069148000000000 255 0 0
0.153369000000000 -0.016117000000000 -0.069148000000000 255 0 0
0.137725000000000 -0.016117000000000 -0.069148000000000 255 0 0
0.122081000000000 -0.016117000000000 -0.069148000000000 255 0 0
0.106437000000000 -0.016117000000000 -0.069148000000000 255 0 0
0.090793000000000 -0.016117000000000 -0.069148000000000 255 0 0
0.075150000000000 -0.016117000000000 -0.069148000000000 255 0 0
0.059506000000000 -0.016117000000000 -0.069148000000000 255 0 0
0.043862000000000 -0.016117000000000 -0.069148000000000 255 0 0
0.028218000000000 -0.016117000000000 -0.069148000000000 255 0 0
0.012574000000000 -0.016117000000000 -0.069148000000000 255 0 0
-0.003070000000000 -0.016117000000000 -0.069148000000000 255 0 0
-0.018714000000000 -0.016117000000000 -0.069148000000000 255 0 0
-0.034357000000000 -0.016117000000000 -0.069148000000000 255 0 0
-0.050001000000000 -0.016117000000000 -0.069148000000000 255 0 0
-0.065645000000000 -0.016117000000000 -0.069148000000000 255 0 0
-0.081289000000000 -0.016117000000000 -0.069148000000000 255 0 0
-0.096933000000000 -0.016117000000000 -0.069148000000000 255 0 0
-0.112577000000000 -0.016117000000000 -0.069148000000000 255 0 0
-0.128221000000000 -0.016117000000000 -0.069148000000000 255 0 0
-0.143865000000000 -0.016117000000000 -0.069148000000000 255 0 0
-0.159508000000000 -0.016117000000000 -0.069148000000000 255 0 0
-0.175152000000000 -0.016117000000000 -0.069148000000000 255 0 0
-0.190796000000000 -0.016117000000000 -0.069148000000000 255 0 0
-0.206440000000000 -0.016117000000000 -0.069148000000000 255 0 0
-0.222084000000000 -0.016117000000000 -0.069148000000000 255 0 0
-0.237728000000000 -0.016117000000000 -0.069148000000000 255 0 0
-0.253372000000000 -0.016117000000000 -0.069148000000000 255 0 0
-0.269015000000000 -0.016117000000000 -0.069148000000000 255 0 0
-0.284659000000000 -0.016117000000000 -0.069148000000000 255 0 0
-0.300303000000000 -0.016117000000000 -0.069148000000000 255 0 0
-0.315947000000000 -0.016117000000000 -0.069148000000000 255 0 0
-0.331591000000000 -0.016117000000000 -0.069148000000000 255 0 0
-0.347235000000000 -0.016117000000000 -0.069148000000000 255 0 0
-0.362879000000000 -0.016117000000000 -0.069148000000000 255 0 0
-0.378522000000000 -0.016117000000000 -0.069148000000000 255 0 0
-0.394166000000000 -0.016117000000000 -0.069148000000000 255 0 0
-0.409810000000000 -0.016117000000000 -0.069148000000000 255 0 0
-0.425342000000000 -0.016241000000000 -0.069384000000000 255 0 0
-0.440316000000000 -0.016664000000000 -0.070203000000000 255 0 0
-0.455032000000000 -0.017440000000000 -0.071237000000000 255 0 0
-0.467463000000000 -0.018203000000000 -0.074199000000000 255 0 0
0.432637000000000 -0.031127000000000 -0.070832000000000 255 0 0
0.421699000000000 -0.011901000000000 -0.071292000000000 255 0 0
0.321588000000000 -0.023684000000000 -0.064526000000000 255 0 0
0.327922000000000 -0.013197000000000 -0.085163000000000 255 0 0
0.305510000000000 -0.025222000000000 -0.063421000000000 255 0 0
-0.506148000000000 -0.026781000000000 -0.065253000000000 255 0 0
-0.497271000000000 -0.021959000000000 -0.085430000000000 255 0 0
-0.523046000000000 -0.029697000000000 -0.064227000000000 255 0 0
-0.535436000000000 -0.030573000000000 -0.068031000000000 255 0 0
-0.550009000000000 -0.032105000000000 -0.069595000000000 255 0 0
-0.564240000000000 -0.034667000000000 -0.070228000000000 255 0 0
0.441490000000000 -0.048449000000000 -0.061347000000000 255 0 0
-0.578289000000000 -0.040023000000000 -0.071473000000000 255 0 0
-0.588949000000000 -0.047068000000000 -0.075171000000000 255 0 0
0.445681000000000 -0.062984000000000 -0.067207000000000 255 0 0
-0.597070000000000 -0.061107000000000 -0.074075000000000 255 0 0
-0.602081000000000 -0.063116000000000 -0.091893000000000 255 0 0
0.445020000000000 -0.077382000000000 -0.070961000000000 255 0 0
-0.596412000000000 -0.077605000000000 -0.069093000000000 255 0 0
0.440537000000000 -0.088279000000000 -0.075187000000000 255 0 0
-0.589583000000000 -0.090617000000000 -0.062422000000000 255 0 0
0.431770000000000 -0.099234000000000 -0.074352000000000 255 0 0
0.418553000000000 -0.107692000000000 -0.070233000000000 255 0 0
0.403869000000000 -0.114495000000000 -0.068248000000000 255 0 0
0.256416000000000 -0.117963000000000 -0.071230000000000 255 0 0
0.243038000000000 -0.112988000000000 -0.073529000000000 255 0 0
0.231241000000000 -0.111568000000000 -0.070340000000000 255 0 0
0.215982000000000 -0.110377000000000 -0.069359000000000 255 0 0
0.200300000000000 -0.109983000000000 -0.069148000000000 255 0 0
0.184657000000000 -0.109983000000000 -0.069148000000000 255 0 0
0.169013000000000 -0.109983000000000 -0.069148000000000 255 0 0
0.153369000000000 -0.109983000000000 -0.069148000000000 255 0 0
0.137725000000000 -0.109983000000000 -0.069148000000000 255 0 0
0.122081000000000 -0.109983000000000 -0.069148000000000 255 0 0
0.106437000000000 -0.109983000000000 -0.069148000000000 255 0 0
0.090793000000000 -0.109983000000000 -0.069148000000000 255 0 0
0.075236000000000 -0.109983000000000 -0.069061000000000 255 0 0
0.059787000000000 -0.110377000000000 -0.068763000000000 255 0 0
0.044619000000000 -0.111338000000000 -0.067923000000000 255 0 0
0.032588000000000 -0.112438000000000 -0.065055000000000 255 0 0
0.018215000000000 -0.115849000000000 -0.068667000000000 255 0 0
-0.472324000000000 -0.116408000000000 -0.069210000000000 255 0 0
-0.488030000000000 -0.112518000000000 -0.069148000000000 255 0 0
-0.503673000000000 -0.110563000000000 -0.069148000000000 255 0 0
-0.519317000000000 -0.109983000000000 -0.069148000000000 255 0 0
-0.534961000000000 -0.109983000000000 -0.069148000000000 255 0 0
-0.550605000000000 -0.109694000000000 -0.069148000000000 255 0 0
-0.565930000000000 -0.107564000000000 -0.068916000000000 255 0 0
-0.580087000000000 -0.101121000000000 -0.067591000000000 255 0 0
0.388855000000000 -0.126506000000000 -0.064756000000000 255 0 0
0.271087000000000 -0.127027000000000 -0.071078000000000 255 0 0
-0.001282000000000 -0.120561000000000 -0.072128000000000 255 0 0
-0.018817000000000 -0.123599000000000 -0.069831000000000 255 0 0
-0.034614000000000 -0.125068000000000 -0.069384000000000 255 0 0
-0.050088000000000 -0.125627000000000 -0.069235000000000 255 0 0
-0.065645000000000 -0.125627000000000 -0.069148000000000 255 0 0
-0.081289000000000 -0.125627000000000 -0.069148000000000 255 0 0
-0.096933000000000 -0.125627000000000 -0.069148000000000 255 0 0
-0.112577000000000 -0.125627000000000 -0.069148000000000 255 0 0
-0.128221000000000 -0.125627000000000 -0.069148000000000 255 0 0
-0.143865000000000 -0.125627000000000 -0.069148000000000 255 0 0
-0.159508000000000 -0.125627000000000 -0.069148000000000 255 0 0
-0.175152000000000 -0.125627000000000 -0.069148000000000 255 0 0
-0.190796000000000 -0.125627000000000 -0.069148000000000 255 0 0
-0.206440000000000 -0.125627000000000 -0.069148000000000 255 0 0
-0.222084000000000 -0.125627000000000 -0.069148000000000 255 0 0
-0.237728000000000 -0.125627000000000 -0.069148000000000 255 0 0
-0.253372000000000 -0.125627000000000 -0.069148000000000 255 0 0
-0.269015000000000 -0.125627000000000 -0.069148000000000 255 0 0
-0.284659000000000 -0.125627000000000 -0.069148000000000 255 0 0
-0.300303000000000 -0.125627000000000 -0.069148000000000 255 0 0
-0.315947000000000 -0.125627000000000 -0.069148000000000 255 0 0
-0.331591000000000 -0.125627000000000 -0.069148000000000 255 0 0
-0.347235000000000 -0.125627000000000 -0.069148000000000 255 0 0
-0.362879000000000 -0.125627000000000 -0.069148000000000 255 0 0
-0.378522000000000 -0.125627000000000 -0.069148000000000 255 0 0
-0.394079000000000 -0.125627000000000 -0.069061000000000 255 0 0
-0.409492000000000 -0.125700000000000 -0.068974000000000 255 0 0
-0.424933000000000 -0.125627000000000 -0.069061000000000 255 0 0
-0.440601000000000 -0.124448000000000 -0.069210000000000 255 0 0
-0.456473000000000 -0.120878000000000 -0.069272000000000 255 0 0
0.374491000000000 -0.144827000000000 -0.066838000000000 255 0 0
0.284330000000000 -0.140278000000000 -0.070271000000000 255 0 0
0.296495000000000 -0.155656000000000 -0.070571000000000 255 0 0
0.427990000000000 0.000841000000000 -0.086711000000000 255 0 0
0.294614000000000 -0.018681000000000 -0.083111000000000 255 0 0
0.278644000000000 -0.017111000000000 -0.084523000000000 255 0 0
0.262876000000000 -0.016190000000000 -0.084792000000000 255 0 0
0.247232000000000 -0.016117000000000 -0.084792000000000 255 0 0
0.231588000000000 -0.016117000000000 -0.084792000000000 255 0 0
0.215944000000000 -0.016117000000000 -0.084792000000000 255 0 0
0.200300000000000 -0.016117000000000 -0.084792000000000 255 0 0
0.184657000000000 -0.016117000000000 -0.084792000000000 255 0 0
0.169013000000000 -0.016117000000000 -0.084792000000000 255 0 0
0.153369000000000 -0.016117000000000 -0.084792000000000 255 0 0
0.137725000000000 -0.016117000000000 -0.084792000000000 255 0 0
0.122081000000000 -0.016117000000000 -0.084792000000000 255 0 0
