ply
format ascii 1.0
element vertex 742
property double x
property double y
property double z
property uchar red
property uchar green
property uchar blue
end_header
0.000084000000000 -0.409268000000000 -0.504907000000000 255 0 0
-0.012440000000000 -0.407224000000000 -0.513292000000000 255 0 0
0.041528000000000 -0.419539000000000 -0.505434000000000 255 0 0
0.023045000000000 -0.422114000000000 -0.502997000000000 255 0 0
0.007585000000000 -0.422714000000000 -0.504940000000000 255 0 0
-0.003957000000000 -0.424640000000000 -0.508480000000000 255 0 0
-0.010567000000000 -0.419759000000000 -0.511786000000000 255 0 0
0.027063000000000 -0.437547000000000 -0.507272000000000 255 0 0
0.011119000000000 -0.437151000000000 -0.507223000000000 255 0 0
-0.000626000000000 -0.434330000000000 -0.509004000000000 255 0 0
0.028901000000000 -0.453009000000000 -0.510825000000000 255 0 0
0.013574000000000 -0.452347000000000 -0.509895000000000 255 0 0
-0.003555000000000 -0.450104000000000 -0.513822000000000 255 0 0
0.017243000000000 -0.464676000000000 -0.512055000000000 255 0 0
-0.002454000000000 -0.128663000000000 -0.509026000000000 255 0 0
0.113942000000000 -0.138919000000000 -0.503929000000000 255 0 0
0.005018000000000 -0.144945000000000 -0.511694000000000 255 0 0
0.108032000000000 -0.153527000000000 -0.510753000000000 255 0 0
0.004251000000000 -0.161655000000000 -0.512286000000000 255 0 0
0.114071000000000 -0.188955000000000 -0.501858000000000 255 0 0
0.109410000000000 -0.170847000000000 -0.509054000000000 255 0 0
0.000159000000000 -0.174845000000000 -0.508683000000000 255 0 0
-0.004102000000000 -0.191801000000000 -0.504637000000000 255 0 0
0.114064000000000 -0.205537000000000 -0.508283000000000 255 0 0
0.115227000000000 -0.221889000000000 -0.504643000000000 255 0 0
-0.013718000000000 -0.225152000000000 -0.511474000000000 255 0 0
0.112812000000000 -0.231730000000000 -0.509387000000000 255 0 0
-0.015778000000000 -0.237211000000000 -0.509255000000000 255 0 0
0.109558000000000 -0.247099000000000 -0.505381000000000 255 0 0
-0.017471000000000 -0.251695000000000 -0.508414000000000 255 0 0
0.105747000000000 -0.264744000000000 -0.507354000000000 255 0 0
-0.017846000000000 -0.266594000000000 -0.507495000000000 255 0 0
0.103169000000000 -0.281150000000000 -0.509250000000000 255 0 0
-0.017411000000000 -0.282064000000000 -0.507176000000000 255 0 0
0.100540000000000 -0.296103000000000 -0.514365000000000 255 0 0
-0.016480000000000 -0.297770000000000 -0.507176000000000 255 0 0
0.093704000000000 -0.314159000000000 -0.506990000000000 255 0 0
-0.015404000000000 -0.313563000000000 -0.507350000000000 255 0 0
0.089648000000000 -0.327775000000000 -0.508559000000000 255 0 0
0.085183000000000 -0.341045000000000 -0.511225000000000 255 0 0
0.076966000000000 -0.360103000000000 -0.508161000000000 255 0 0
0.067880000000000 -0.376052000000000 -0.504118000000000 255 0 0
0.067763000000000 -0.390921000000000 -0.512834000000000 255 0 0
0.057279000000000 -0.405474000000000 -0.508552000000000 255 0 0
0.056576000000000 -0.421502000000000 -0.516016000000000 255 0 0
0.042844000000000 -0.437845000000000 -0.511928000000000 255 0 0
-0.012355000000000 -0.435088000000000 -0.515607000000000 255 0 0
-0.024740000000000 -0.441302000000000 -0.529201000000000 255 0 0
0.043276000000000 -0.454309000000000 -0.517512000000000 255 0 0
-0.017775000000000 -0.450829000000000 -0.521326000000000 255 0 0
0.042270000000000 -0.470491000000000 -0.521485000000000 255 0 0
0.028872000000000 -0.468057000000000 -0.515127000000000 255 0 0
0.002725000000000 -0.467760000000000 -0.515368000000000 255 0 0
-0.016749000000000 -0.469220000000000 -0.525133000000000 255 0 0
0.027358000000000 -0.484052000000000 -0.519511000000000 255 0 0
0.013175000000000 -0.478829000000000 -0.516433000000000 255 0 0
-0.005866000000000 -0.487289000000000 -0.522115000000000 255 0 0
-0.021115000000000 -0.487995000000000 -0.530774000000000 255 0 0
0.026986000000000 -0.500527000000000 -0.523466000000000 255 0 0
0.009183000000000 -0.498504000000000 -0.521189000000000 255 0 0
-0.007906000000000 -0.504520000000000 -0.525076000000000 255 0 0
-0.019803000000000 -0.501960000000000 -0.531134000000000 255 0 0
0.027602000000000 -0.516511000000000 -0.526099000000000 255 0 0
0.012182000000000 -0.516142000000000 -0.523437000000000 255 0 0
-0.003951000000000 -0.516875000000000 -0.525072000000000 255 0 0
-0.018921000000000 -0.517504000000000 -0.531312000000000 255 0 0
0.013750000000000 -0.531385000000000 -0.525252000000000 255 0 0
-0.001199000000000 -0.531683000000000 -0.525689000000000 255 0 0
-0.016706000000000 -0.532854000000000 -0.531292000000000 255 0 0
0.014454000000000 -0.546048000000000 -0.527666000000000 255 0 0
0.002444000000000 -0.543734000000000 -0.526663000000000 255 0 0
0.003350000000000 -0.128396000000000 -0.525229000000000 255 0 0
0.106327000000000 -0.141146000000000 -0.521665000000000 255 0 0
0.013095000000000 -0.141349000000000 -0.528625000000000 255 0 0
0.102160000000000 -0.158571000000000 -0.524341000000000 255 0 0
0.009682000000000 -0.156958000000000 -0.523825000000000 255 0 0
0.105343000000000 -0.171961000000000 -0.521253000000000 255 0 0
0.005438000000000 -0.172970000000000 -0.523269000000000 255 0 0
0.108259000000000 -0.185752000000000 -0.519365000000000 255 0 0
-0.000210000000000 -0.188938000000000 -0.522246000000000 255 0 0
0.111376000000000 -0.219531000000000 -0.517933000000000 255 0 0
0.107315000000000 -0.203130000000000 -0.526421000000000 255 0 0
-0.005540000000000 -0.205364000000000 -0.522097000000000 255 0 0
-0.009496000000000 -0.221359000000000 -0.523292000000000 255 0 0
0.109334000000000 -0.234728000000000 -0.521075000000000 255 0 0
-0.013301000000000 -0.236308000000000 -0.523739000000000 255 0 0
0.107227000000000 -0.250590000000000 -0.521194000000000 255 0 0
-0.016128000000000 -0.251186000000000 -0.523230000000000 255 0 0
0.105425000000000 -0.266172000000000 -0.522644000000000 255 0 0
-0.017266000000000 -0.266507000000000 -0.522907000000000 255 0 0
0.103560000000000 -0.281050000000000 -0.524796000000000 255 0 0
-0.017918000000000 -0.282064000000000 -0.522820000000000 255 0 0
0.101832000000000 -0.292742000000000 -0.527811000000000 255 0 0
-0.018136000000000 -0.297708000000000 -0.522820000000000 255 0 0
0.097562000000000 -0.306458000000000 -0.524104000000000 255 0 0
-0.017918000000000 -0.313352000000000 -0.522820000000000 255 0 0
0.092235000000000 -0.324657000000000 -0.521555000000000 255 0 0
-0.017484000000000 -0.328996000000000 -0.522820000000000 255 0 0
0.089317000000000 -0.338989000000000 -0.527151000000000 255 0 0
-0.016966000000000 -0.344590000000000 -0.522584000000000 255 0 0
0.084198000000000 -0.355443000000000 -0.526375000000000 255 0 0
-0.016594000000000 -0.359837000000000 -0.521938000000000 255 0 0
0.076617000000000 -0.376380000000000 -0.520712000000000 255 0 0
-0.016858000000000 -0.375088000000000 -0.521750000000000 255 0 0
0.073257000000000 -0.390401000000000 -0.522580000000000 255 0 0
-0.017630000000000 -0.388347000000000 -0.520973000000000 255 0 0
0.068343000000000 -0.403826000000000 -0.522698000000000 255 0 0
-0.021187000000000 -0.405030000000000 -0.526349000000000 255 0 0
-0.027028000000000 -0.408693000000000 -0.544580000000000 255 0 0
0.066873000000000 -0.421109000000000 -0.529604000000000 255 0 0
-0.019655000000000 -0.422442000000000 -0.521239000000000 255 0 0
-0.027922000000000 -0.426059000000000 -0.538478000000000 255 0 0
0.056747000000000 -0.438168000000000 -0.522417000000000 255 0 0
0.056745000000000 -0.456683000000000 -0.529927000000000 255 0 0
-0.025033000000000 -0.457222000000000 -0.530155000000000 255 0 0
0.051537000000000 -0.473884000000000 -0.529716000000000 255 0 0
-0.029454000000000 -0.468748000000000 -0.538421000000000 255 0 0
0.041261000000000 -0.485997000000000 -0.525836000000000 255 0 0
-0.027651000000000 -0.481491000000000 -0.536987000000000 255 0 0
0.041135000000000 -0.501190000000000 -0.529913000000000 255 0 0
-0.032245000000000 -0.498333000000000 -0.543280000000000 255 0 0
0.041079000000000 -0.516511000000000 -0.533791000000000 255 0 0
-0.031795000000000 -0.516470000000000 -0.541800000000000 255 0 0
0.028069000000000 -0.531894000000000 -0.529230000000000 255 0 0
-0.031022000000000 -0.532618000000000 -0.541026000000000 255 0 0
0.028463000000000 -0.546831000000000 -0.533073000000000 255 0 0
-0.011649000000000 -0.547815000000000 -0.530961000000000 255 0 0
-0.029541000000000 -0.550628000000000 -0.540832000000000 255 0 0
0.027837000000000 -0.562272000000000 -0.536787000000000 255 0 0
0.016176000000000 -0.558733000000000 -0.531585000000000 255 0 0
-0.000198000000000 -0.560150000000000 -0.531202000000000 255 0 0
-0.021173000000000 -0.566888000000000 -0.537582000000000 255 0 0
-0.035992000000000 -0.567027000000000 -0.546426000000000 255 0 0
0.027233000000000 -0.578587000000000 -0.540663000000000 255 0 0
0.010007000000000 -0.575775000000000 -0.535155000000000 255 0 0
-0.009862000000000 -0.579418000000000 -0.536231000000000 255 0 0
-0.024228000000000 -0.583499000000000 -0.540569000000000 255 0 0
-0.035437000000000 -0.580506000000000 -0.546730000000000 255 0 0
0.012023000000000 -0.594230000000000 -0.538896000000000 255 0 0
-0.004432000000000 -0.594317000000000 -0.537799000000000 255 0 0
-0.020357000000000 -0.595562000000000 -0.540489000000000 255 0 0
-0.034747000000000 -0.595860000000000 -0.546933000000000 255 0 0
0.013125000000000 -0.610263000000000 -0.541590000000000 255 0 0
-0.002043000000000 -0.609630000000000 -0.539667000000000 255 0 0
-0.017071000000000 -0.609965000000000 -0.541116000000000 255 0 0
-0.032458000000000 -0.611210000000000 -0.547000000000000 255 0 0
-0.000776000000000 -0.624855000000000 -0.542255000000000 255 0 0
-0.013156000000000 -0.622211000000000 -0.541874000000000 255 0 0
0.029862000000000 -0.129037000000000 -0.548075000000000 255 0 0
0.014734000000000 -0.126117000000000 -0.541467000000000 255 0 0
0.096268000000000 -0.142454000000000 -0.535706000000000 255 0 0
0.079799000000000 -0.144998000000000 -0.546448000000000 255 0 0
0.060987000000000 -0.142420000000000 -0.550656000000000 255 0 0
0.041682000000000 -0.139345000000000 -0.548356000000000 255 0 0
0.024341000000000 -0.140583000000000 -0.539248000000000 255 0 0
0.099892000000000 -0.172485000000000 -0.530106000000000 255 0 0
0.091076000000000 -0.158350000000000 -0.537628000000000 255 0 0
0.029567000000000 -0.156250000000000 -0.542529000000000 255 0 0
0.018386000000000 -0.152865000000000 -0.533485000000000 255 0 0
0.089569000000000 -0.173215000000000 -0.541227000000000 255 0 0
0.016203000000000 -0.169656000000000 -0.536691000000000 255 0 0
0.099355000000000 -0.187220000000000 -0.534271000000000 255 0 0
0.008263000000000 -0.187362000000000 -0.536626000000000 255 0 0
0.098144000000000 -0.200224000000000 -0.539003000000000 255 0 0
0.002235000000000 -0.203371000000000 -0.536837000000000 255 0 0
0.102076000000000 -0.219424000000000 -0.536172000000000 255 0 0
-0.002914000000000 -0.218967000000000 -0.537251000000000 255 0 0
0.105176000000000 -0.238425000000000 -0.532636000000000 255 0 0
-0.007076000000000 -0.234983000000000 -0.537965000000000 255 0 0
0.103908000000000 -0.251410000000000 -0.535563000000000 255 0 0
-0.010365000000000 -0.250714000000000 -0.537964000000000 255 0 0
0.102745000000000 -0.266334000000000 -0.537320000000000 255 0 0
-0.013438000000000 -0.266184000000000 -0.537972000000000 255 0 0
0.100673000000000 -0.281050000000000 -0.538682000000000 255 0 0
-0.015331000000000 -0.281853000000000 -0.538291000000000 255 0 0
0.097580000000000 -0.295763000000000 -0.538713000000000 255 0 0
-0.016480000000000 -0.297646000000000 -0.538464000000000 255 0 0
0.094438000000000 -0.311444000000000 -0.537879000000000 255 0 0
-0.017411000000000 -0.313352000000000 -0.538464000000000 255 0 0
0.090800000000000 -0.327237000000000 -0.538646000000000 255 0 0
-0.017918000000000 -0.328996000000000 -0.538464000000000 255 0 0
0.088127000000000 -0.342244000000000 -0.540217000000000 255 0 0
-0.018260000000000 -0.344677000000000 -0.538253000000000 255 0 0
0.085841000000000 -0.354493000000000 -0.542740000000000 255 0 0
-0.018838000000000 -0.360106000000000 -0.537144000000000 255 0 0
0.081510000000000 -0.368504000000000 -0.538755000000000 255 0 0
-0.019407000000000 -0.372422000000000 -0.533692000000000 255 0 0
0.076162000000000 -0.387729000000000 -0.535818000000000 255 0 0
-0.022030000000000 -0.389281000000000 -0.536012000000000 255 0 0
-0.024882000000000 -0.397999000000000 -0.554825000000000 255 0 0
0.073288000000000 -0.405337000000000 -0.539482000000000 255 0 0
0.072221000000000 -0.418468000000000 -0.542860000000000 255 0 0
0.067773000000000 -0.435531000000000 -0.539269000000000 255 0 0
-0.031283000000000 -0.443062000000000 -0.542602000000000 255 0 0
0.067215000000000 -0.452914000000000 -0.546137000000000 255 0 0
-0.031020000000000 -0.455011000000000 -0.539868000000000 255 0 0
0.060547000000000 -0.470020000000000 -0.540209000000000 255 0 0
0.052074000000000 -0.486080000000000 -0.534931000000000 255 0 0
0.051738000000000 -0.500743000000000 -0.540353000000000 255 0 0
-0.041922000000000 -0.501273000000000 -0.561173000000000 255 0 0
0.051238000000000 -0.515468000000000 -0.545619000000000 255 0 0
-0.041540000000000 -0.516172000000000 -0.556032000000000 255 0 0
0.041259000000000 -0.531621000000000 -0.538002000000000 255 0 0
-0.041533000000000 -0.531447000000000 -0.553718000000000 255 0 0
0.041284000000000 -0.547203000000000 -0.542745000000000 255 0 0
-0.041735000000000 -0.546802000000000 -0.553029000000000 255 0 0
0.040970000000000 -0.563319000000000 -0.546086000000000 255 0 0
-0.042039000000000 -0.560281000000000 -0.552473000000000 255 0 0
0.040945000000000 -0.579087000000000 -0.549507000000000 255 0 0
-0.047633000000000 -0.576680000000000 -0.558924000000000 255 0 0
0.027536000000000 -0.594880000000000 -0.544123000000000 255 0 0
-0.047439000000000 -0.594777000000000 -0.557530000000000 255 0 0
0.027864000000000 -0.610880000000000 -0.548367000000000 255 0 0
-0.046595000000000 -0.611235000000000 -0.557067000000000 255 0 0
0.027857000000000 -0.626358000000000 -0.551655000000000 255 0 0
0.014213000000000 -0.625398000000000 -0.545126000000000 255 0 0
-0.027140000000000 -0.626162000000000 -0.546637000000000 255 0 0
-0.044446000000000 -0.629688000000000 -0.557121000000000 255 0 0
0.016314000000000 -0.637851000000000 -0.549774000000000 255 0 0
0.002605000000000 -0.639990000000000 -0.546464000000000 255 0 0
-0.015597000000000 -0.638872000000000 -0.546555000000000 255 0 0
-0.034717000000000 -0.644753000000000 -0.553294000000000 255 0 0
-0.048257000000000 -0.646675000000000 -0.562256000000000 255 0 0
0.010613000000000 -0.654101000000000 -0.553708000000000 255 0 0
-0.007891000000000 -0.655348000000000 -0.550828000000000 255 0 0
-0.023817000000000 -0.656295000000000 -0.552668000000000 255 0 0
-0.033983000000000 -0.657597000000000 -0.555997000000000 255 0 0
-0.002937000000000 -0.670501000000000 -0.556479000000000 255 0 0
-0.016641000000000 -0.668081000000000 -0.555386000000000 255 0 0
0.091731000000000 -0.128538000000000 -0.548699000000000 255 0 0
0.074272000000000 -0.128619000000000 -0.556254000000000 255 0 0
0.056637000000000 -0.127290000000000 -0.558058000000000 255 0 0
0.040653000000000 -0.123249000000000 -0.558000000000000 255 0 0
0.080474000000000 -0.161294000000000 -0.544668000000000 255 0 0
0.067427000000000 -0.158763000000000 -0.548739000000000 255 0 0
0.047844000000000 -0.160194000000000 -0.548988000000000 255 0 0
0.088506000000000 -0.187680000000000 -0.544582000000000 255 0 0
0.076648000000000 -0.173637000000000 -0.548114000000000 255 0 0
0.061525000000000 -0.174631000000000 -0.552107000000000 255 0 0
0.047442000000000 -0.177995000000000 -0.553495000000000 255 0 0
0.031633000000000 -0.175657000000000 -0.548727000000000 255 0 0
0.074868000000000 -0.188996000000000 -0.552023000000000 255 0 0
0.058601000000000 -0.192330000000000 -0.557217000000000 255 0 0
0.040493000000000 -0.190704000000000 -0.557008000000000 255 0 0
0.027025000000000 -0.191958000000000 -0.553774000000000 255 0 0
0.018641000000000 -0.185514000000000 -0.546136000000000 255 0 0
0.088620000000000 -0.203448000000000 -0.547582000000000 255 0 0
0.075145000000000 -0.205024000000000 -0.556464000000000 255 0 0
0.015869000000000 -0.204171000000000 -0.551162000000000 255 0 0
0.098638000000000 -0.235741000000000 -0.544494000000000 255 0 0
0.088809000000000 -0.219725000000000 -0.551513000000000 255 0 0
0.013334000000000 -0.222505000000000 -0.556483000000000 255 0 0
0.005384000000000 -0.216250000000000 -0.547385000000000 255 0 0
0.087948000000000 -0.235306000000000 -0.556600000000000 255 0 0
0.004732000000000 -0.232945000000000 -0.551883000000000 255 0 0
0.097331000000000 -0.250950000000000 -0.548503000000000 255 0 0
-0.001372000000000 -0.250413000000000 -0.551630000000000 255 0 0
0.095936000000000 -0.266334000000000 -0.550574000000000 255 0 0
-0.006514000000000 -0.265514000000000 -0.551555000000000 255 0 0
0.094343000000000 -0.281746000000000 -0.551240000000000 255 0 0
-0.008472000000000 -0.280798000000000 -0.552449000000000 255 0 0
0.091508000000000 -0.297270000000000 -0.551743000000000 255 0 0
-0.010544000000000 -0.297112000000000 -0.553392000000000 255 0 0
0.089108000000000 -0.312996000000000 -0.552333000000000 255 0 0
-0.013076000000000 -0.313290000000000 -0.553550000000000 255 0 0
0.087473000000000 -0.328524000000000 -0.553225000000000 255 0 0
-0.015238000000000 -0.328996000000000 -0.553529000000000 255 0 0
0.084916000000000 -0.343402000000000 -0.554230000000000 255 0 0
-0.016648000000000 -0.344615000000000 -0.553438000000000 255 0 0
0.081760000000000 -0.358202000000000 -0.554174000000000 255 0 0
-0.018143000000000 -0.360454000000000 -0.552904000000000 255 0 0
0.078627000000000 -0.374119000000000 -0.553099000000000 255 0 0
-0.020624000000000 -0.378276000000000 -0.550614000000000 255 0 0
0.075461000000000 -0.390570000000000 -0.553182000000000 255 0 0
0.074124000000000 -0.406197000000000 -0.554292000000000 255 0 0
-0.028933000000000 -0.412256000000000 -0.558851000000000 255 0 0
0.072986000000000 -0.421634000000000 -0.554628000000000 255 0 0
-0.030678000000000 -0.424407000000000 -0.555671000000000 255 0 0
0.072022000000000 -0.437128000000000 -0.555930000000000 255 0 0
-0.032681000000000 -0.439831000000000 -0.554383000000000 255 0 0
0.071055000000000 -0.449584000000000 -0.559686000000000 255 0 0
-0.034199000000000 -0.454557000000000 -0.553032000000000 255 0 0
0.066546000000000 -0.465680000000000 -0.557577000000000 255 0 0
-0.034107000000000 -0.466006000000000 -0.549368000000000 255 0 0
0.059780000000000 -0.484385000000000 -0.548827000000000 255 0 0
-0.036002000000000 -0.482158000000000 -0.551798000000000 255 0 0
-0.041513000000000 -0.488939000000000 -0.572624000000000 255 0 0
0.057934000000000 -0.499560000000000 -0.554554000000000 255 0 0
0.056837000000000 -0.512342000000000 -0.558202000000000 255 0 0
0.052011000000000 -0.529152000000000 -0.553538000000000 255 0 0
0.051023000000000 -0.547439000000000 -0.555775000000000 255 0 0
0.050857000000000 -0.563356000000000 -0.557996000000000 255 0 0
0.050969000000000 -0.578221000000000 -0.561980000000000 255 0 0
-0.057546000000000 -0.579365000000000 -0.576795000000000 255 0 0
0.041211000000000 -0.594780000000000 -0.554013000000000 255 0 0
-0.057111000000000 -0.594566000000000 -0.571995000000000 255 0 0
0.041621000000000 -0.612451000000000 -0.560432000000000 255 0 0
-0.056831000000000 -0.610585000000000 -0.570600000000000 255 0 0
0.037274000000000 -0.629185000000000 -0.561381000000000 255 0 0
-0.056518000000000 -0.626941000000000 -0.570506000000000 255 0 0
0.027063000000000 -0.641425000000000 -0.557384000000000 255 0 0
-0.056265000000000 -0.643255000000000 -0.571429000000000 255 0 0
0.026107000000000 -0.657760000000000 -0.564525000000000 255 0 0
-0.042956000000000 -0.658837000000000 -0.561700000000000 255 0 0
0.012162000000000 -0.672301000000000 -0.561982000000000 255 0 0
-0.031784000000000 -0.670580000000000 -0.560268000000000 255 0 0
-0.048691000000000 -0.676407000000000 -0.572490000000000 255 0 0
0.011333000000000 -0.688537000000000 -0.568873000000000 255 0 0
0.000154000000000 -0.683835000000000 -0.562457000000000 255 0 0
-0.016497000000000 -0.684566000000000 -0.562240000000000 255 0 0
-0.035788000000000 -0.691189000000000 -0.569087000000000 255 0 0
-0.049387000000000 -0.693479000000000 -0.577932000000000 255 0 0
-0.004460000000000 -0.700413000000000 -0.569370000000000 255 0 0
-0.023237000000000 -0.703088000000000 -0.569943000000000 255 0 0
-0.034262000000000 -0.704486000000000 -0.572416000000000 255 0 0
0.063851000000000 -0.208165000000000 -0.561563000000000 255 0 0
0.050074000000000 -0.205558000000000 -0.562262000000000 255 0 0
0.075538000000000 -0.220321000000000 -0.560263000000000 255 0 0
0.033852000000000 -0.205414000000000 -0.559897000000000 255 0 0
0.061335000000000 -0.220383000000000 -0.565209000000000 255 0 0
0.045546000000000 -0.220606000000000 -0.565772000000000 255 0 0
0.028170000000000 -0.223096000000000 -0.562805000000000 255 0 0
0.087245000000000 -0.250777000000000 -0.559034000000000 255 0 0
0.074672000000000 -0.235306000000000 -0.563973000000000 255 0 0
0.059793000000000 -0.235555000000000 -0.567717000000000 255 0 0
0.043920000000000 -0.236788000000000 -0.568663000000000 255 0 0
0.031095000000000 -0.239440000000000 -0.567839000000000 255 0 0
0.018634000000000 -0.236167000000000 -0.562678000000000 255 0 0
0.073857000000000 -0.250839000000000 -0.566556000000000 255 0 0
0.058691000000000 -0.251638000000000 -0.570097000000000 255 0 0
0.041014000000000 -0.254302000000000 -0.571609000000000 255 0 0
0.025421000000000 -0.249008000000000 -0.568365000000000 255 0 0
0.012029000000000 -0.252232000000000 -0.563474000000000 255 0 0
0.085942000000000 -0.266420000000000 -0.560844000000000 255 0 0
0.073288000000000 -0.266689000000000 -0.568066000000000 255 0 0
0.058623000000000 -0.268176000000000 -0.573336000000000 255 0 0
0.025708000000000 -0.265262000000000 -0.572157000000000 255 0 0
0.013128000000000 -0.265502000000000 -0.568138000000000 255 0 0
0.004565000000000 -0.265261000000000 -0.562312000000000 255 0 0
0.084348000000000 -0.282064000000000 -0.562148000000000 255 0 0
0.072785000000000 -0.282503000000000 -0.570467000000000 255 0 0
0.012728000000000 -0.279068000000000 -0.571012000000000 255 0 0
-0.000291000000000 -0.277411000000000 -0.561742000000000 255 0 0
0.083190000000000 -0.297708000000000 -0.563307000000000 255 0 0
0.072282000000000 -0.298027000000000 -0.573301000000000 255 0 0
0.001941000000000 -0.294701000000000 -0.567053000000000 255 0 0
0.081886000000000 -0.313352000000000 -0.564900000000000 255 0 0
-0.003701000000000 -0.313299000000000 -0.567058000000000 255 0 0
0.080293000000000 -0.328909000000000 -0.566290000000000 255 0 0
-0.007989000000000 -0.328909000000000 -0.567021000000000 255 0 0
0.078699000000000 -0.344321000000000 -0.566812000000000 255 0 0
-0.011046000000000 -0.344255000000000 -0.567191000000000 255 0 0
0.075865000000000 -0.359845000000000 -0.566880000000000 255 0 0
-0.014001000000000 -0.359514000000000 -0.567203000000000 255 0 0
0.073681000000000 -0.375658000000000 -0.566803000000000 255 0 0
-0.016501000000000 -0.375373000000000 -0.567493000000000 255 0 0
0.072678000000000 -0.391422000000000 -0.567387000000000 255 0 0
-0.020342000000000 -0.392445000000000 -0.568619000000000 255 0 0
0.072130000000000 -0.406979000000000 -0.568126000000000 255 0 0
-0.024569000000000 -0.408800000000000 -0.570087000000000 255 0 0
0.071860000000000 -0.422474000000000 -0.568802000000000 255 0 0
-0.028519000000000 -0.423724000000000 -0.570530000000000 255 0 0
0.071082000000000 -0.437522000000000 -0.570131000000000 255 0 0
-0.031834000000000 -0.438950000000000 -0.569764000000000 255 0 0
0.069380000000000 -0.452132000000000 -0.571178000000000 255 0 0
-0.034423000000000 -0.454833000000000 -0.568183000000000 255 0 0
0.066058000000000 -0.464806000000000 -0.573069000000000 255 0 0
-0.036944000000000 -0.469757000000000 -0.563047000000000 255 0 0
0.062555000000000 -0.481643000000000 -0.567498000000000 255 0 0
0.059465000000000 -0.499833000000000 -0.570028000000000 255 0 0
-0.046158000000000 -0.505354000000000 -0.575266000000000 255 0 0
0.057922000000000 -0.515704000000000 -0.569988000000000 255 0 0
-0.047298000000000 -0.517281000000000 -0.571312000000000 255 0 0
0.056962000000000 -0.531795000000000 -0.569609000000000 255 0 0
-0.048018000000000 -0.531621000000000 -0.567943000000000 255 0 0
0.056651000000000 -0.547799000000000 -0.570583000000000 255 0 0
-0.047921000000000 -0.543734000000000 -0.564138000000000 255 0 0
0.056597000000000 -0.562822000000000 -0.571933000000000 255 0 0
-0.050938000000000 -0.560257000000000 -0.567203000000000 255 0 0
-0.057661000000000 -0.566314000000000 -0.588066000000000 255 0 0
0.056453000000000 -0.575130000000000 -0.574371000000000 255 0 0
0.052211000000000 -0.591884000000000 -0.570312000000000 255 0 0
0.052082000000000 -0.608827000000000 -0.576267000000000 255 0 0
0.046237000000000 -0.623109000000000 -0.569776000000000 255 0 0
0.040888000000000 -0.641389000000000 -0.572368000000000 255 0 0
0.035880000000000 -0.660130000000000 -0.575517000000000 255 0 0
-0.054375000000000 -0.658995000000000 -0.572309000000000 255 0 0
0.025886000000000 -0.675903000000000 -0.573622000000000 255 0 0
-0.059738000000000 -0.673906000000000 -0.586161000000000 255 0 0
0.020552000000000 -0.692704000000000 -0.578014000000000 255 0 0
-0.057541000000000 -0.690133000000000 -0.587055000000000 255 0 0
0.010792000000000 -0.704396000000000 -0.577447000000000 255 0 0
-0.043205000000000 -0.705513000000000 -0.577675000000000 255 0 0
-0.000045000000000 -0.715991000000000 -0.578961000000000 255 0 0
-0.014424000000000 -0.717645000000000 -0.577050000000000 255 0 0
-0.032280000000000 -0.716889000000000 -0.578136000000000 255 0 0
-0.047425000000000 -0.721011000000000 -0.587734000000000 255 0 0
-0.023833000000000 -0.731801000000000 -0.585018000000000 255 0 0
-0.037072000000000 -0.729805000000000 -0.586136000000000 255 0 0
0.059572000000000 -0.284146000000000 -0.576362000000000 255 0 0
0.044043000000000 -0.273610000000000 -0.576308000000000 255 0 0
0.048159000000000 -0.287727000000000 -0.580400000000000 255 0 0
0.032184000000000 -0.286005000000000 -0.578586000000000 255 0 0
0.071688000000000 -0.313439000000000 -0.574895000000000 255 0 0
0.059628000000000 -0.298945000000000 -0.579518000000000 255 0 0
0.045868000000000 -0.299787000000000 -0.582388000000000 255 0 0
0.033732000000000 -0.302154000000000 -0.582635000000000 255 0 0
0.019714000000000 -0.298439000000000 -0.577829000000000 255 0 0
0.058685000000000 -0.313762000000000 -0.581651000000000 255 0 0
0.044748000000000 -0.314333000000000 -0.583884000000000 255 0 0
0.029873000000000 -0.314727000000000 -0.583025000000000 255 0 0
0.012650000000000 -0.316125000000000 -0.578139000000000 255 0 0
0.070298000000000 -0.328996000000000 -0.576198000000000 255 0 0
0.057855000000000 -0.329083000000000 -0.582282000000000 255 0 0
0.043512000000000 -0.329505000000000 -0.584693000000000 255 0 0
0.028221000000000 -0.330610000000000 -0.584510000000000 255 0 0
0.015587000000000 -0.332956000000000 -0.583116000000000 255 0 0
0.003518000000000 -0.329390000000000 -0.577223000000000 255 0 0
0.068704000000000 -0.344640000000000 -0.576633000000000 255 0 0
0.057054000000000 -0.344702000000000 -0.582924000000000 255 0 0
0.042758000000000 -0.345501000000000 -0.585959000000000 255 0 0
0.025419000000000 -0.348101000000000 -0.587125000000000 255 0 0
0.010090000000000 -0.342358000000000 -0.583449000000000 255 0 0
-0.001159000000000 -0.343919000000000 -0.577803000000000 255 0 0
0.067618000000000 -0.360284000000000 -0.576995000000000 255 0 0
0.056557000000000 -0.360553000000000 -0.583928000000000 255 0 0
0.042907000000000 -0.362039000000000 -0.588980000000000 255 0 0
0.010195000000000 -0.359068000000000 -0.586957000000000 255 0 0
-0.005481000000000 -0.359086000000000 -0.578283000000000 255 0 0
0.066749000000000 -0.375927000000000 -0.577864000000000 255 0 0
0.056634000000000 -0.376366000000000 -0.586111000000000 255 0 0
-0.000353000000000 -0.375198000000000 -0.587012000000000 255 0 0
-0.010301000000000 -0.371696000000000 -0.577530000000000 255 0 0
0.066459000000000 -0.391571000000000 -0.578950000000000 255 0 0
0.056783000000000 -0.391890000000000 -0.588945000000000 255 0 0
-0.010355000000000 -0.388567000000000 -0.582700000000000 255 0 0
0.066459000000000 -0.407215000000000 -0.580544000000000 255 0 0
-0.017038000000000 -0.406251000000000 -0.582961000000000 255 0 0
0.066387000000000 -0.422772000000000 -0.582007000000000 255 0 0
-0.022249000000000 -0.421977000000000 -0.583953000000000 255 0 0
0.065491000000000 -0.438093000000000 -0.583199000000000 255 0 0
-0.025716000000000 -0.438047000000000 -0.584702000000000 255 0 0
0.063469000000000 -0.453092000000000 -0.584440000000000 255 0 0
-0.030979000000000 -0.454560000000000 -0.584150000000000 255 0 0
0.061017000000000 -0.468595000000000 -0.584466000000000 255 0 0
-0.036694000000000 -0.473111000000000 -0.582406000000000 255 0 0
0.058600000000000 -0.485294000000000 -0.584595000000000 255 0 0
-0.040916000000000 -0.490102000000000 -0.588788000000000 255 0 0
0.058191000000000 -0.501910000000000 -0.584638000000000 255 0 0
-0.045383000000000 -0.502978000000000 -0.587276000000000 255 0 0
0.058377000000000 -0.517343000000000 -0.584249000000000 255 0 0
-0.048355000000000 -0.517703000000000 -0.586136000000000 255 0 0
0.058369000000000 -0.532478000000000 -0.584798000000000 255 0 0
-0.050727000000000 -0.532552000000000 -0.583306000000000 255 0 0
0.058348000000000 -0.547836000000000 -0.585642000000000 255 0 0
-0.052410000000000 -0.547324000000000 -0.577999000000000 255 0 0
0.058212000000000 -0.562884000000000 -0.586335000000000 255 0 0
0.057529000000000 -0.578283000000000 -0.586243000000000 255 0 0
-0.062236000000000 -0.583316000000000 -0.590953000000000 255 0 0
0.056999000000000 -0.593716000000000 -0.586818000000000 255 0 0
-0.062725000000000 -0.595587000000000 -0.587477000000000 255 0 0
0.056815000000000 -0.606190000000000 -0.589652000000000 255 0 0
-0.062749000000000 -0.610610000000000 -0.585834000000000 255 0 0
0.052442000000000 -0.622575000000000 -0.585465000000000 255 0 0
-0.062687000000000 -0.626291000000000 -0.585395000000000 255 0 0
0.049651000000000 -0.640305000000000 -0.590976000000000 255 0 0
-0.062495000000000 -0.642084000000000 -0.585569000000000 255 0 0
0.043591000000000 -0.653760000000000 -0.584138000000000 255 0 0
-0.061826000000000 -0.657877000000000 -0.585888000000000 255 0 0
0.038524000000000 -0.669792000000000 -0.588991000000000 255 0 0
0.030201000000000 -0.688521000000000 -0.588232000000000 255 0 0
0.021589000000000 -0.704871000000000 -0.588267000000000 255 0 0
-0.054232000000000 -0.705637000000000 -0.587794000000000 255 0 0
0.010758000000000 -0.721129000000000 -0.589051000000000 255 0 0
-0.057246000000000 -0.719507000000000 -0.599764000000000 255 0 0
0.006704000000000 -0.732962000000000 -0.594185000000000 255 0 0
-0.004420000000000 -0.732703000000000 -0.588974000000000 255 0 0
-0.044458000000000 -0.734009000000000 -0.592789000000000 255 0 0
-0.019551000000000 -0.743913000000000 -0.596280000000000 255 0 0
-0.034235000000000 -0.739966000000000 -0.593699000000000 255 0 0
0.043928000000000 -0.378009000000000 -0.592006000000000 255 0 0
0.028434000000000 -0.367526000000000 -0.591845000000000 255 0 0
0.032505000000000 -0.381729000000000 -0.596214000000000 255 0 0
0.016540000000000 -0.380286000000000 -0.594544000000000 255 0 0
0.056634000000000 -0.407364000000000 -0.590808000000000 255 0 0
0.044077000000000 -0.392933000000000 -0.595482000000000 255 0 0
0.029658000000000 -0.394327000000000 -0.598968000000000 255 0 0
0.016428000000000 -0.396816000000000 -0.599715000000000 255 0 0
0.003470000000000 -0.392300000000000 -0.594304000000000 255 0 0
0.043274000000000 -0.408324000000000 -0.598493000000000 255 0 0
0.026664000000000 -0.411755000000000 -0.603334000000000 255 0 0
0.008460000000000 -0.409001000000000 -0.601251000000000 255 0 0
-0.006187000000000 -0.406296000000000 -0.593810000000000 255 0 0
0.056355000000000 -0.423070000000000 -0.592916000000000 255 0 0
0.043317000000000 -0.424253000000000 -0.601171000000000 255 0 0
-0.002020000000000 -0.423059000000000 -0.602146000000000 255 0 0
-0.012882000000000 -0.418691000000000 -0.593095000000000 255 0 0
0.055823000000000 -0.438652000000000 -0.594501000000000 255 0 0
0.043341000000000 -0.439558000000000 -0.604076000000000 255 0 0
-0.014449000000000 -0.435877000000000 -0.598418000000000 255 0 0
0.054176000000000 -0.454060000000000 -0.596318000000000 255 0 0
-0.022976000000000 -0.453517000000000 -0.598409000000000 255 0 0
0.052546000000000 -0.470151000000000 -0.598145000000000 255 0 0
-0.029156000000000 -0.469546000000000 -0.598209000000000 255 0 0
0.052428000000000 -0.488595000000000 -0.600426000000000 255 0 0
-0.035368000000000 -0.485541000000000 -0.599575000000000 255 0 0
0.056453000000000 -0.505310000000000 -0.595890000000000 255 0 0
-0.040002000000000 -0.501305000000000 -0.601194000000000 255 0 0
0.056597000000000 -0.517554000000000 -0.598337000000000 255 0 0
-0.045291000000000 -0.516921000000000 -0.601007000000000 255 0 0
0.056610000000000 -0.532453000000000 -0.599577000000000 255 0 0
-0.049696000000000 -0.533024000000000 -0.599608000000000 255 0 0
0.056651000000000 -0.548109000000000 -0.600599000000000 255 0 0
-0.054022000000000 -0.549037000000000 -0.595134000000000 255 0 0
0.056987000000000 -0.564266000000000 -0.601292000000000 255 0 0
-0.057645000000000 -0.565450000000000 -0.606627000000000 255 0 0
0.057678000000000 -0.580232000000000 -0.600924000000000 255 0 0
-0.061854000000000 -0.580672000000000 -0.603333000000000 255 0 0
0.058054000000000 -0.594880000000000 -0.600977000000000 255 0 0
-0.064121000000000 -0.595773000000000 -0.602335000000000 255 0 0
0.057212000000000 -0.609493000000000 -0.601532000000000 255 0 0
-0.064995000000000 -0.610759000000000 -0.601358000000000 255 0 0
0.055174000000000 -0.625174000000000 -0.602786000000000 255 0 0
-0.065067000000000 -0.626229000000000 -0.601039000000000 255 0 0
0.051944000000000 -0.640160000000000 -0.607252000000000 255 0 0
-0.065067000000000 -0.641873000000000 -0.601039000000000 255 0 0
0.046890000000000 -0.655014000000000 -0.597671000000000 255 0 0
-0.064850000000000 -0.657517000000000 -0.601039000000000 255 0 0
0.043679000000000 -0.667316000000000 -0.604554000000000 255 0 0
-0.064260000000000 -0.673223000000000 -0.601039000000000 255 0 0
0.038069000000000 -0.683356000000000 -0.605054000000000 255 0 0
-0.063395000000000 -0.689016000000000 -0.601213000000000 255 0 0
0.030320000000000 -0.701540000000000 -0.602504000000000 255 0 0
-0.061545000000000 -0.704722000000000 -0.601010000000000 255 0 0
0.021440000000000 -0.718355000000000 -0.602515000000000 255 0 0
0.012625000000000 -0.732944000000000 -0.602448000000000 255 0 0
-0.051664000000000 -0.730496000000000 -0.598040000000000 255 0 0
0.003773000000000 -0.739693000000000 -0.599658000000000 255 0 0
-0.006217000000000 -0.747282000000000 -0.603035000000000 255 0 0
-0.018113000000000 -0.753002000000000 -0.607408000000000 255 0 0
-0.032623000000000 -0.749809000000000 -0.606908000000000 255 0 0
-0.045714000000000 -0.740102000000000 -0.602241000000000 255 0 0
0.031801000000000 -0.427997000000000 -0.606364000000000 255 0 0
0.015695000000000 -0.427590000000000 -0.607863000000000 255 0 0
0.042296000000000 -0.454743000000000 -0.606530000000000 255 0 0
0.029555000000000 -0.440782000000000 -0.610102000000000 255 0 0
0.016959000000000 -0.444132000000000 -0.613244000000000 255 0 0
0.001436000000000 -0.442072000000000 -0.610181000000000 255 0 0
0.028204000000000 -0.455968000000000 -0.613825000000000 255 0 0
0.011414000000000 -0.458585000000000 -0.617060000000000 255 0 0
-0.001246000000000 -0.455448000000000 -0.614924000000000 255 0 0
-0.010487000000000 -0.453993000000000 -0.609411000000000 255 0 0
0.041425000000000 -0.470718000000000 -0.609678000000000 255 0 0
0.027519000000000 -0.471885000000000 -0.618402000000000 255 0 0
-0.003929000000000 -0.469296000000000 -0.618204000000000 255 0 0
-0.019343000000000 -0.468817000000000 -0.609550000000000 255 0 0
0.050969000000000 -0.502270000000000 -0.607465000000000 255 0 0
0.041197000000000 -0.486531000000000 -0.614236000000000 255 0 0
-0.016485000000000 -0.485172000000000 -0.618554000000000 255 0 0
-0.026922000000000 -0.481431000000000 -0.608863000000000 255 0 0
0.041181000000000 -0.501608000000000 -0.619256000000000 255 0 0
-0.029567000000000 -0.498060000000000 -0.614440000000000 255 0 0
0.050836000000000 -0.516958000000000 -0.611140000000000 255 0 0
-0.037731000000000 -0.515468000000000 -0.614983000000000 255 0 0
0.050836000000000 -0.532552000000000 -0.613559000000000 255 0 0
-0.043404000000000 -0.532345000000000 -0.615295000000000 255 0 0
0.051210000000000 -0.549134000000000 -0.615473000000000 255 0 0
-0.050996000000000 -0.551149000000000 -0.614147000000000 255 0 0
0.052862000000000 -0.567622000000000 -0.617363000000000 255 0 0
-0.054509000000000 -0.567676000000000 -0.620250000000000 255 0 0
0.056840000000000 -0.583608000000000 -0.612353000000000 255 0 0
-0.058983000000000 -0.580129000000000 -0.618322000000000 255 0 0
0.056647000000000 -0.595500000000000 -0.614691000000000 255 0 0
-0.062395000000000 -0.595202000000000 -0.617296000000000 255 0 0
0.055536000000000 -0.610312000000000 -0.616460000000000 255 0 0
-0.064126000000000 -0.610672000000000 -0.616770000000000 255 0 0
0.053804000000000 -0.625335000000000 -0.618440000000000 255 0 0
-0.064850000000000 -0.626229000000000 -0.616684000000000 255 0 0
0.050709000000000 -0.637553000000000 -0.621029000000000 255 0 0
-0.065067000000000 -0.641873000000000 -0.616683000000000 255 0 0
0.047336000000000 -0.653314000000000 -0.615729000000000 255 0 0
-0.065140000000000 -0.657517000000000 -0.616683000000000 255 0 0
0.042707000000000 -0.670277000000000 -0.618077000000000 255 0 0
-0.065284000000000 -0.673161000000000 -0.616683000000000 255 0 0
0.039638000000000 -0.682702000000000 -0.621098000000000 255 0 0
-0.065284000000000 -0.688718000000000 -0.616596000000000 255 0 0
0.035010000000000 -0.695816000000000 -0.618065000000000 255 0 0
-0.064301000000000 -0.704213000000000 -0.616013000000000 255 0 0
0.028485000000000 -0.712225000000000 -0.617607000000000 255 0 0
-0.061338000000000 -0.719408000000000 -0.613981000000000 255 0 0
0.018491000000000 -0.730774000000000 -0.619898000000000 255 0 0
-0.055199000000000 -0.732716000000000 -0.609392000000000 255 0 0
0.004577000000000 -0.745985000000000 -0.614729000000000 255 0 0
-0.046904000000000 -0.744391000000000 -0.616025000000000 255 0 0
-0.010434000000000 -0.755050000000000 -0.617388000000000 255 0 0
-0.025066000000000 -0.756606000000000 -0.619141000000000 255 0 0
-0.037526000000000 -0.752806000000000 -0.621034000000000 255 0 0
0.028305000000000 -0.487578000000000 -0.622487000000000 255 0 0
0.013170000000000 -0.477288000000000 -0.622754000000000 255 0 0
0.016776000000000 -0.491299000000000 -0.627436000000000 255 0 0
0.000620000000000 -0.490283000000000 -0.626154000000000 255 0 0
0.040990000000000 -0.516933000000000 -0.622168000000000 255 0 0
0.028434000000000 -0.502440000000000 -0.626625000000000 255 0 0
0.013915000000000 -0.503909000000000 -0.630692000000000 255 0 0
0.000435000000000 -0.506933000000000 -0.632074000000000 255 0 0
-0.015111000000000 -0.504338000000000 -0.627015000000000 255 0 0
0.027701000000000 -0.517902000000000 -0.630536000000000 255 0 0
0.011425000000000 -0.521138000000000 -0.635920000000000 255 0 0
-0.006802000000000 -0.519647000000000 -0.635713000000000 255 0 0
-0.020147000000000 -0.520382000000000 -0.632322000000000 255 0 0
-0.027490000000000 -0.513521000000000 -0.624420000000000 255 0 0
0.041008000000000 -0.533189000000000 -0.625439000000000 255 0 0
0.027946000000000 -0.534095000000000 -0.634871000000000 255 0 0
-0.031522000000000 -0.530280000000000 -0.629113000000000 255 0 0
0.041585000000000 -0.551195000000000 -0.630045000000000 255 0 0
-0.040486000000000 -0.547988000000000 -0.629321000000000 255 0 0
0.051940000000000 -0.580612000000000 -0.624841000000000 255 0 0
0.046374000000000 -0.567244000000000 -0.631280000000000 255 0 0
-0.047567000000000 -0.563889000000000 -0.630250000000000 255 0 0
-0.052594000000000 -0.578991000000000 -0.631588000000000 255 0 0
0.050979000000000 -0.594768000000000 -0.629083000000000 255 0 0
-0.055667000000000 -0.594572000000000 -0.631948000000000 255 0 0
0.049889000000000 -0.610287000000000 -0.631115000000000 255 0 0
-0.059593000000000 -0.610523000000000 -0.631769000000000 255 0 0
0.047917000000000 -0.625398000000000 -0.632408000000000 255 0 0
-0.061895000000000 -0.626142000000000 -0.631719000000000 255 0 0
0.045479000000000 -0.640607000000000 -0.632170000000000 255 0 0
-0.062644000000000 -0.641637000000000 -0.631835000000000 255 0 0
0.042288000000000 -0.656462000000000 -0.631810000000000 255 0 0
-0.063002000000000 -0.657306000000000 -0.632154000000000 255 0 0
0.039493000000000 -0.671799000000000 -0.632615000000000 255 0 0
-0.063629000000000 -0.673099000000000 -0.632327000000000 255 0 0
0.035985000000000 -0.686496000000000 -0.632870000000000 255 0 0
-0.064343000000000 -0.688631000000000 -0.632009000000000 255 0 0
0.031489000000000 -0.701771000000000 -0.632760000000000 255 0 0
-0.064411000000000 -0.703617000000000 -0.631032000000000 255 0 0
0.025387000000000 -0.717850000000000 -0.634083000000000 255 0 0
-0.062215000000000 -0.718882000000000 -0.629463000000000 255 0 0
0.017963000000000 -0.732422000000000 -0.639177000000000 255 0 0
-0.056286000000000 -0.733489000000000 -0.624587000000000 255 0 0
0.009041000000000 -0.745209000000000 -0.632551000000000 255 0 0
-0.046549000000000 -0.746181000000000 -0.631408000000000 255 0 0
-0.003746000000000 -0.754599000000000 -0.631089000000000 255 0 0
-0.018540000000000 -0.758218000000000 -0.632418000000000 255 0 0
-0.033386000000000 -0.754954000000000 -0.633358000000000 255 0 0
0.016463000000000 -0.536955000000000 -0.640543000000000 255 0 0
0.002170000000000 -0.534936000000000 -0.641797000000000 255 0 0
0.027795000000000 -0.548825000000000 -0.640266000000000 255 0 0
-0.015671000000000 -0.535743000000000 -0.639830000000000 255 0 0
0.037331000000000 -0.561074000000000 -0.638479000000000 255 0 0
0.013373000000000 -0.549495000000000 -0.645566000000000 255 0 0
-0.004446000000000 -0.551998000000000 -0.647951000000000 255 0 0
-0.017679000000000 -0.549119000000000 -0.645459000000000 255 0 0
-0.027717000000000 -0.547940000000000 -0.640179000000000 255 0 0
0.027156000000000 -0.563220000000000 -0.645161000000000 255 0 0
0.012434000000000 -0.565338000000000 -0.650986000000000 255 0 0
-0.019802000000000 -0.562996000000000 -0.649236000000000 255 0 0
-0.036458000000000 -0.562767000000000 -0.640780000000000 255 0 0
0.041369000000000 -0.576988000000000 -0.638475000000000 255 0 0
0.027531000000000 -0.579153000000000 -0.649203000000000 255 0 0
-0.031855000000000 -0.578758000000000 -0.649554000000000 255 0 0
-0.043200000000000 -0.575339000000000 -0.640335000000000 255 0 0
0.040790000000000 -0.594445000000000 -0.642072000000000 255 0 0
-0.043245000000000 -0.592427000000000 -0.645435000000000 255 0 0
0.040067000000000 -0.610436000000000 -0.644251000000000 255 0 0
-0.050108000000000 -0.610585000000000 -0.645295000000000 255 0 0
0.038425000000000 -0.625993000000000 -0.644969000000000 255 0 0
-0.054526000000000 -0.625968000000000 -0.645182000000000 255 0 0
0.036622000000000 -0.641662000000000 -0.645037000000000 255 0 0
-0.056955000000000 -0.640818000000000 -0.645377000000000 255 0 0
0.034934000000000 -0.657368000000000 -0.645389000000000 255 0 0
-0.057438000000000 -0.656251000000000 -0.646312000000000 255 0 0
0.032637000000000 -0.672842000000000 -0.646190000000000 255 0 0
-0.057989000000000 -0.672565000000000 -0.647256000000000 255 0 0
0.029812000000000 -0.688283000000000 -0.646755000000000 255 0 0
-0.060080000000000 -0.688656000000000 -0.646964000000000 255 0 0
0.025744000000000 -0.703865000000000 -0.647613000000000 255 0 0
-0.061731000000000 -0.703679000000000 -0.645372000000000 255 0 0
0.020637000000000 -0.718748000000000 -0.649420000000000 255 0 0
-0.061434000000000 -0.716000000000000 -0.641855000000000 255 0 0
0.014343000000000 -0.730160000000000 -0.651902000000000 255 0 0
-0.054608000000000 -0.731759000000000 -0.642461000000000 255 0 0
0.008562000000000 -0.741634000000000 -0.647475000000000 255 0 0
-0.042003000000000 -0.746067000000000 -0.648353000000000 255 0 0
0.000268000000000 -0.751202000000000 -0.643047000000000 255 0 0
-0.011885000000000 -0.754464000000000 -0.645509000000000 255 0 0
-0.027184000000000 -0.753101000000000 -0.647233000000000 255 0 0
0.013220000000000 -0.581317000000000 -0.655655000000000 255 0 0
-0.002477000000000 -0.571024000000000 -0.654600000000000 255 0 0
0.027596000000000 -0.595136000000000 -0.652307000000000 255 0 0
0.001291000000000 -0.585024000000000 -0.659162000000000 255 0 0
-0.014223000000000 -0.583656000000000 -0.657040000000000 255 0 0
0.013421000000000 -0.596179000000000 -0.658853000000000 255 0 0
-0.000938000000000 -0.597073000000000 -0.661088000000000 255 0 0
-0.012987000000000 -0.599526000000000 -0.660988000000000 255 0 0
-0.026540000000000 -0.596130000000000 -0.656142000000000 255 0 0
0.027002000000000 -0.610672000000000 -0.654201000000000 255 0 0
0.012694000000000 -0.610995000000000 -0.660305000000000 255 0 0
-0.001956000000000 -0.611628000000000 -0.662445000000000 255 0 0
-0.017088000000000 -0.612084000000000 -0.661524000000000 255 0 0
-0.034042000000000 -0.613394000000000 -0.656517000000000 255 0 0
0.026263000000000 -0.626229000000000 -0.654852000000000 255 0 0
0.012030000000000 -0.626440000000000 -0.661112000000000 255 0 0
-0.003426000000000 -0.627238000000000 -0.663732000000000 255 0 0
-0.019631000000000 -0.627888000000000 -0.663361000000000 255 0 0
-0.032180000000000 -0.629643000000000 -0.661607000000000 255 0 0
-0.043367000000000 -0.626387000000000 -0.655438000000000 255 0 0
0.025332000000000 -0.641935000000000 -0.655411000000000 255 0 0
0.011372000000000 -0.642584000000000 -0.662358000000000 255 0 0
-0.005603000000000 -0.645598000000000 -0.667004000000000 255 0 0
-0.024628000000000 -0.642584000000000 -0.665705000000000 255 0 0
-0.037310000000000 -0.638574000000000 -0.661587000000000 255 0 0
-0.047538000000000 -0.640165000000000 -0.655725000000000 255 0 0
0.024415000000000 -0.657728000000000 -0.656448000000000 255 0 0
0.011448000000000 -0.658837000000000 -0.665085000000000 255 0 0
-0.036177000000000 -0.654275000000000 -0.664494000000000 255 0 0
-0.050042000000000 -0.652660000000000 -0.655463000000000 255 0 0
0.022899000000000 -0.673397000000000 -0.658178000000000 255 0 0
-0.045972000000000 -0.670135000000000 -0.660779000000000 255 0 0
0.020484000000000 -0.688892000000000 -0.659820000000000 255 0 0
-0.050755000000000 -0.688838000000000 -0.660632000000000 255 0 0
0.016943000000000 -0.704064000000000 -0.660861000000000 255 0 0
-0.054368000000000 -0.704399000000000 -0.658902000000000 255 0 0
0.011546000000000 -0.718421000000000 -0.661660000000000 255 0 0
-0.055800000000000 -0.719005000000000 -0.653899000000000 255 0 0
0.004058000000000 -0.732616000000000 -0.660183000000000 255 0 0
-0.046341000000000 -0.734790000000000 -0.658459000000000 255 0 0
-0.003963000000000 -0.745744000000000 -0.654850000000000 255 0 0
-0.019071000000000 -0.746271000000000 -0.658951000000000 255 0 0
-0.035255000000000 -0.743027000000000 -0.659916000000000 255 0 0
-0.042247000000000 -0.742959000000000 -0.656936000000000 255 0 0
0.000184000000000 -0.662438000000000 -0.670146000000000 255 0 0
0.011112000000000 -0.674216000000000 -0.667579000000000 255 0 0
-0.015821000000000 -0.661149000000000 -0.670833000000000 255 0 0
-0.002145000000000 -0.675036000000000 -0.673472000000000 255 0 0
-0.013731000000000 -0.677377000000000 -0.675118000000000 255 0 0
-0.027971000000000 -0.673766000000000 -0.671247000000000 255 0 0
0.009034000000000 -0.688979000000000 -0.669621000000000 255 0 0
-0.004075000000000 -0.688954000000000 -0.675179000000000 255 0 0
-0.017874000000000 -0.689285000000000 -0.675953000000000 255 0 0
-0.034213000000000 -0.691423000000000 -0.671663000000000 255 0 0
0.004707000000000 -0.703257000000000 -0.670674000000000 255 0 0
